2.60845580110769	2.61531514216623	2.60619970060252	2.6019591673659	2.57689401378865	2.54990170566597	2.57234980914881	2.5629633560163	2.58535138224176	2.58510338134768	2.60499330656692	2.56733940222983	2.559454544317	2.56022683026659	2.56050988744206	2.57199949068947	2.58135730984312	2.58560463726977	2.56168035656443	2.56045020060975	2.55052895901986	2.56535828346774	2.59345642511222	2.58182636598447	2.55656801324001	2.54289756198029	2.53370198021612	2.5320346720192	2.5372231879897	2.55053406239726	2.54647881663638	2.53777991049601	2.50572589877439	2.4891677597763	2.47903897310469	2.45334486208467	2.46883216240576	2.47862621930437	2.45483798842808	2.4590837789091	2.43272023806874	2.42935850597115	2.42881482244406	2.44297892451498	2.42749203360575	2.42103747097927	2.39269117019211	2.35844359309989	2.35755506595655	2.37277657847498	2.37357561594783	2.36368064143474	2.35960041753878	2.36345081848183	2.33587553661466	2.32046760511533	2.33066896056203	2.3281812457409	2.33620963245001	2.34868718603195	2.35376299878186	2.32249910873098	2.31298328724062	2.30882662225664	2.31540262196023	2.31850360385492	2.33501409596124	2.3230234538438	2.28256568480497	2.2955654412217	2.28471883273802	2.30189352467992	2.32601621569812	2.29969055483866	2.28410668125616	2.26714701138838	2.26643788700377	2.25732948537173	2.26795125572203	2.27203714659508	2.27666075028057	2.26536195248555	2.24944311690696	2.22686691965942	2.21162375146026	2.19180560558636	2.19876328651099	2.19186671424416	2.17736282824868	2.1679304867363	2.15604369372993	2.13865454263781	2.1538491334033	2.17604112864725	2.1507058232356	2.14437423637897	2.11972608649081	2.09071615749321	2.11064393853157	2.09932906979683	2.11768142070028	2.10054785650734	2.0882660252895	2.08479697273849	2.05810045206471	2.05114990199022	2.03442822811899	2.04112138710508	2.05299456406789	2.05940805670739	2.07941486495559	2.05166900486066	2.03665378842024	2.03824502942153	2.02539430800721	2.04085140564251	2.03914385694003	1.9982449312444	1.97636694588638	1.98713868858406	1.97453754620781	1.99009107755895	2.00590837331213	1.96343471870318	1.9514562836679	1.93985668939042	1.93919396773501	1.92548541274568	1.91855141619681	1.92337745215914	1.93153366543656	1.9222843757629	1.89943569685078	1.880267552124	1.8572946540046	1.830500115952	1.83848446431123	1.82997083602488	1.82542448651455	1.81674190293479	1.80505087026659	1.78306686016651	1.80302860860333	1.82682265826279	1.80663336209993	1.79448935407078	1.77919580919762	1.75410884073761	1.77454069467764	1.76691380763395	1.76674366071623	1.75650164798559	1.76772302008772	1.74069613276348	1.72318338645575	1.70224045143731	1.70895278340281	1.71817364788164	1.72402760409592	1.73965818042797	1.73627915838765	1.72649147803259	1.70602040555098	1.70398153698123	1.69766118906735	1.70575521292502	1.68107468235613	1.65204068651684	1.63316178351509	1.63901439630042	1.63664134481228	1.63833007989633	1.65442844489407	1.61130093529235	1.61169881681846	1.58468612681729	1.57373912008006	1.57289380985477	1.5777284710402
2.09981905386911	2.11367105837651	2.11799795941528	2.10225957313912	2.11739764035961	2.12014742525558	2.0980014066584	2.14534198748652	2.13347313284062	2.16075095564524	2.14368395565829	2.12697222517948	2.13539218486292	2.13118097029216	2.13462193423998	2.13183113674077	2.11823969236891	2.14383011262808	2.12505816203568	2.12546696949906	2.1222057715767	2.1244105805301	2.11477692555628	2.08975379182716	2.07545846923938	2.05600407619115	2.04784626972463	2.02515980208577	2.03724292429404	2.00733941503547	2.0165582280612	2.01272879305419	1.9770952294667	1.97812564480327	1.958632460166	1.98107147688849	1.95896351214286	1.94717622248749	1.94793045434026	1.93268729911049	1.92655106631555	1.93434500959629	1.91230225765696	1.91646178990543	1.9093413996206	1.9135825052603	1.9012267530338	1.89441144662537	1.92014736139371	1.93472098598182	1.9359648840788	1.94109750277272	1.95197101585857	1.94394365853126	1.95312247378327	1.95019882533647	1.95207901468951	1.96800351857779	1.96578602770281	1.98545924623317	1.97175730284149	1.96700872930708	1.97300516051099	1.95875273590654	1.96242064855166	1.95679003933263	1.95311064671475	1.96449639260969	1.94943580613991	1.94566656337048	1.9444286235776	1.94121145514187	1.92694334651111	1.9002021861754	1.88630843960586	1.87895076634805	1.85690430378317	1.83645880433587	1.84431660107856	1.81751250014324	1.82685639733475	1.81273312822797	1.78692698302169	1.77486235789999	1.76618961434479	1.76831579418761	1.76581771027725	1.74170572474172	1.73754031849718	1.71782543651339	1.71666032529864	1.72739435399684	1.702101270429	1.70976490934529	1.71081238109349	1.69152814863553	1.68533506791262	1.67720323183918	1.69296622898385	1.69663873280173	1.70220904046742	1.70866859183044	1.71033569789522	1.70341897202439	1.71599049238706	1.70893173078667	1.72617740146748	1.72622729662622	1.72566254177509	1.73347312815469	1.70943862573171	1.71351253376737	1.72439099046184	1.71088413624945	1.71507214712049	1.71008233338174	1.70029996656556	1.704805294799	1.6898900443079	1.69949572380935	1.69031721102069	1.68881934848242	1.67412628502951	1.64615498816891	1.62491930856883	1.62572166316897	1.5944408319926	1.58318478020081	1.5819984517547	1.5560819451487	1.56566102512972	1.53850180843856	1.52059204813369	1.5101995989664	1.49941597650791	1.50345019070324	1.48276137392241	1.45987387162416	1.45313004468429	1.44329931427428	1.44336474146857	1.44058638554669	1.42882444861848	1.4327623293201	1.42754231706162	1.41061947177766	1.40959777412416	1.40187248103787	1.40422896084965	1.42095263418282	1.41967823038171	1.42888824958511	1.42828258572172	1.41695055797681	1.42098415271668	1.41692622268147	1.43725995395767	1.41489949222328	1.43206821273139	1.43034171763391	1.41053840265656	1.41632833130563	1.41790660435498	1.41532978993468	1.41877277734917	1.40009029163753	1.38915697894038	1.39713979103226	1.37804394690271	1.37274788063986	1.37882370795104	1.37804981396402	1.37021460007607	1.35016445065103	1.32121745897331	1.32283862586528	1.29046712105965	1.29188655347215	1.28145865934704
1.69160046249919	1.70106135805108	1.68966917599308	1.66323236267095	1.65413706113001	1.64743861046498	1.63587339299905	1.63488370585491	1.64648525096053	1.66678583076412	1.66000662068494	1.64303971370082	1.65625561994718	1.65710207779302	1.67901790386635	1.68357072870302	1.69494673213072	1.68304574799546	1.69691091461786	1.70700722631636	1.69486326529243	1.68894153460539	1.67439412720543	1.66137026186855	1.66569998857719	1.65778223992903	1.65434928864388	1.65634752335804	1.67911330348996	1.6828422749021	1.68512357287037	1.68237768797768	1.6625771404211	1.65048426200611	1.62608845026517	1.62854907363022	1.63527156016503	1.61743748056603	1.61184212877793	1.59569264599234	1.57289938705634	1.56381669053335	1.56616277964222	1.5542727053015	1.5397602083124	1.53189244687079	1.54229435350775	1.55216830595563	1.54832230072088	1.54565141112996	1.53848237807383	1.54556949127709	1.54453229971328	1.5220235386281	1.51734481123535	1.50969078308847	1.49457687438016	1.50658666373932	1.5078933672194	1.52158853355764	1.50882402043777	1.49812136410928	1.51076635877841	1.51053648685475	1.52582530735782	1.52895404073415	1.53584303298564	1.52887793193752	1.54777852791712	1.54098963160447	1.52386117501879	1.52324822237156	1.50184212893562	1.50098562737307	1.50031995362871	1.48926095831976	1.47586314506674	1.48795907696718	1.50371061536842	1.50482380340038	1.50532045002849	1.5068802520346	1.48812166069406	1.48058617492249	1.46379013946824	1.46235111082258	1.46633538694399	1.43641112148996	1.44600978191042	1.40924120834594	1.39692811690088	1.39612708260276	1.38594126887065	1.38709199396943	1.36439741115632	1.37232400446051	1.35744678844446	1.3633011856798	1.35999711293834	1.35174897931678	1.34649172189629	1.34841684205377	1.34586108866984	1.3256348211361	1.31717483037569	1.31310303525086	1.3065866026988	1.30600195609928	1.30278805020625	1.31279555027188	1.31121641271862	1.2865127491293	1.30015903633928	1.28802433546555	1.3128674933167	1.30095908829915	1.31034128620394	1.30554269191356	1.31303137435784	1.32315167499347	1.31032471456771	1.31339961671977	1.2869146324448	1.29575237049954	1.28936247422033	1.27220524407629	1.26278908987718	1.26584865247912	1.27895322470183	1.27556941689603	1.2694419010012	1.28076408952987	1.26122223900116	1.25567482180172	1.23795015124293	1.24929422763174	1.25024783580894	1.22646972135327	1.2360990348859	1.20427286241255	1.20130127866661	1.18301541101814	1.16888078726833	1.16094710073134	1.14596786423518	1.15214796267202	1.1376975527877	1.15975074609312	1.14859005494029	1.14555684454619	1.1433139186315	1.14794743854045	1.12769946793503	1.11107057695604	1.11522745887108	1.11564891675704	1.10514573347651	1.10373197274325	1.09809197116728	1.10462365286863	1.09582220508488	1.07468208786501	1.09130351759828	1.07050145706187	1.09994291132283	1.08811767932008	1.09355759469792	1.09880949703934	1.09605711489783	1.0972192955916	1.08334494621185	1.08433352579168	1.06298572712066	1.05947228691519	1.06645602459459	1.05290329930438	1.04228172780234	1.04319245776606	1.05262455887669
1.35557270336824	1.3544258049488	1.35220328175248	1.34442313136117	1.35063685686904	1.34755319616989	1.35608361687424	1.32712940503825	1.31131126744941	1.3043975086777	1.31187856408777	1.30547847155114	1.30673413144912	1.31777955088477	1.29704790896493	1.30886771552236	1.31929453642001	1.31780718906103	1.30571791338119	1.29802782427374	1.29461031626312	1.2807766921854	1.26995334980115	1.24969501299769	1.2606592224598	1.27346225530209	1.270851174155	1.2630195933032	1.26107989794426	1.26711977970042	1.25392939464554	1.26028090164408	1.27662074962548	1.28468549162632	1.27871240021892	1.26328115681187	1.26263136879756	1.25651559383744	1.25209023842045	1.24306126677517	1.23560927203564	1.22484007706754	1.22619924322841	1.23672434175434	1.23267252362243	1.23654293255948	1.24054438866398	1.25001334639655	1.26051429376255	1.24212579432208	1.22561458754764	1.22549686243536	1.22212242584571	1.20769312955033	1.20428510169219	1.206272139687	1.20970802510543	1.18774900973294	1.17821501978464	1.18025894859722	1.19231266389248	1.18454944600428	1.19457542463072	1.19657066552429	1.18434966714075	1.18992873255442	1.19068903270805	1.19048840812051	1.18214588258399	1.17699277929035	1.16748818239404	1.16915620369178	1.1497228087443	1.13606177744632	1.14476101561209	1.15107973459261	1.14047789080892	1.13983863297271	1.14206415944716	1.13356067206801	1.12232465619397	1.11933362617149	1.13940670164284	1.14529373243417	1.13846735416698	1.13853926333092	1.11806643382319	1.10983549332132	1.097638245726	1.10302311944311	1.08967971978017	1.07400916083669	1.07885100785083	1.07820162856038	1.06816211496696	1.08131443284631	1.08616966315781	1.09770365236457	1.10263332715827	1.09523358775396	1.09333446360549	1.08344226018621	1.07600419897213	1.07435501449727	1.07887906559039	1.07584994958448	1.07827481306952	1.05234425916241	1.0426049881448	1.04252734401944	1.05171421631996	1.05731766112139	1.0630538617022	1.05238567936819	1.05583552526945	1.06439766505499	1.06848564629452	1.05778119293651	1.05286545242682	1.04590974955307	1.03270106768767	1.02561494257025	1.01157297538238	0.996150967294959	0.991386858569834	1.00211062334919	0.994198568391754	0.98797425227122	0.98692139859823	0.977541545410831	0.968220781194335	0.953949374749775	0.968896953633554	0.978661934853428	0.964245397080583	0.964541739496483	0.944850743148298	0.937402107547681	0.935750427342528	0.931125309122628	0.925211661010489	0.906337765691587	0.910115809681099	0.913821647575212	0.911855963159833	0.917205346592724	0.916980120197043	0.940914521586413	0.940273033679088	0.940620863666502	0.938794520146065	0.9264209053263	0.932938369517155	0.926527006475931	0.924901068196169	0.924017775243626	0.927535103196677	0.900119215899134	0.89042288894254	0.889485206436791	0.879122461309296	0.887113942594465	0.884430874802698	0.876827638112417	0.881923324137795	0.88244963228108	0.885091196149252	0.86695327575807	0.85763733775885	0.848753967155114	0.842228100502676	0.824540823817564	0.799441453360816	0.786416683253287	0.782079143937426	0.785680980679017	0.780742503470712	0.775643290528365	0.778095198829071
1.00133272519745	1.00055160883609	1.01392650876165	1.01984700691355	1.0244380658718	1.02794000561403	1.01254120408823	1.02438225641241	1.03496959492772	1.03455353293916	1.04220139515335	1.04988572498585	1.04738016622487	1.0608031067747	1.05864075350031	1.05988934090481	1.06137567020829	1.04386737491586	1.0474882101232	1.05159927232813	1.03551788153699	1.03927318163037	1.04182823537284	1.04190497833196	1.03457811676041	1.03446693230246	1.03514523645976	1.02136357780649	1.01451729910634	1.0017012572617	1.00148956366485	1.00634074828421	0.981787759927865	0.973881556662536	0.972182050647608	0.95498568812759	0.951269072694542	0.952112670768316	0.932785691767887	0.931692939784916	0.919060118023757	0.929515240608532	0.929516266244369	0.929675398847106	0.924822611231612	0.929553378376545	0.927185228396384	0.930853412822701	0.923566468450921	0.916487947351902	0.909304332091826	0.912482124499946	0.912786287023054	0.924236425861417	0.921670339725752	0.921772644887562	0.915119461579143	0.931289223319411	0.931866966811664	0.934727033541827	0.934405588206534	0.935756261539952	0.936536116195012	0.954459113015919	0.94590797742451	0.944075437751869	0.931879104789826	0.928493314557383	0.930289764090039	0.925225381569012	0.920966577003202	0.914210056475742	0.91597617178175	0.919347256283923	0.909949802225998	0.914967151499599	0.906016748003289	0.896473230737245	0.885456526056097	0.874774992286125	0.871154205249704	0.879013461207177	0.856901514170196	0.857997717745028	0.854899970151863	0.833756837000811	0.829254546836062	0.829250098534307	0.815879970670214	0.813174298455617	0.810974560829311	0.81978178389367	0.823902043416651	0.81694311278552	0.818759783192534	0.823523361050336	0.81154072992169	0.810258433457837	0.804086211292048	0.799687538695368	0.795395992829104	0.794165007556436	0.798356140435413	0.805187669133737	0.808470409825052	0.802671204654649	0.800882787073837	0.815764473829294	0.819056915665163	0.825137489820959	0.828806624791434	0.826709338946605	0.820333106498866	0.835030220821763	0.833057374739531	0.829899264130353	0.813061287801322	0.811502646549178	0.809415489524005	0.80384508715846	0.812029882406885	0.799510367531775	0.79616585504674	0.803486418020954	0.795866649081461	0.794150671531548	0.786192316441402	0.778702866501795	0.762308214164025	0.757036819622232	0.755683381618857	0.761671906066487	0.733058029899796	0.730755486871066	0.714591973473801	0.704958869228713	0.713326309618713	0.707086018291836	0.693938768231896	0.691849097251837	0.69415547251478	0.701747422182899	0.687674269160562	0.688175221997554	0.67828879130534	0.673750034018062	0.672800103057689	0.665353391107859	0.663898701125254	0.660033559962178	0.658784907331141	0.654438392380616	0.658108436246537	0.663204264515187	0.668732785478992	0.657515016650441	0.660496626463918	0.680175647504938	0.674388446135867	0.678998472774897	0.681409798922716	0.673972373537999	0.666707649458125	0.672689630524315	0.675210154983563	0.67673169307618	0.66683134639192	0.664913542436825	0.670298232967115	0.666561094448817	0.6664718582821	0.65687025970615	0.658680166526121	0.663221366432769	0.653363767126078	0.656152495905042	0.650235178405996	0.642390566217448	0.628244636769304
0.742209124975942	0.744781228802341	0.742486134397264	0.735532133316759	0.73706066276282	0.73473100373776	0.750778866791535	0.759251507711408	0.762799866848628	0.764359511499382	0.746780963166768	0.767805777879034	0.786787680665572	0.779161804880434	0.783314215922291	0.789336710496402	0.79695770708552	0.801798560937129	0.812231572483818	0.815856670900034	0.811799919374346	0.789223743491623	0.782249476329025	0.765807334428801	0.757767061064094	0.757984483305313	0.757570462898904	0.756938090867129	0.758604262060454	0.75282363346839	0.750138733239539	0.73388617311595	0.727876016023054	0.717571749986947	0.716192545247016	0.725782438069746	0.696159437005942	0.678053654413631	0.679422960952427	0.67020088999494	0.658748278690968	0.649064708183978	0.64152647391698	0.6279848251247	0.623830296530715	0.630683843902346	0.644636273217135	0.654422139390819	0.664603135812927	0.664588692383861	0.666164965147217	0.665815229273622	0.666702798463814	0.659051223024845	0.663514893601049	0.665731464378037	0.675654524530501	0.682143184686969	0.682291853047211	0.679084060697533	0.675885580680893	0.703160261841508	0.718016270585617	0.712050369080076	0.715667586626834	0.731819804739905	0.732568557162915	0.732421485445653	0.743944553038075	0.745071820138785	0.729964244256014	0.709727919188596	0.69887333202512	0.688422696216238	0.679283740081682	0.679643769607673	0.683186925068869	0.674251526448779	0.682277763416711	0.671436765204941	0.67353567144303	0.658509039045819	0.648058710487083	0.639092967674779	0.640146441957679	0.640333907334934	0.608540592938196	0.598671406575516	0.598684751929648	0.582842214424157	0.576983158387178	0.567037268933849	0.565661185460053	0.548028059862314	0.5511895261204	0.562520059060904	0.569312880997611	0.584898101421544	0.589510824262853	0.591604924214249	0.58731152323413	0.586471343174254	0.592673411536512	0.581792895806043	0.583220021461384	0.587970386612999	0.596527451057058	0.595182990914049	0.598552504076087	0.593890543414565	0.589073348853888	0.618415747429906	0.621343281043681	0.617077131813831	0.617793749372512	0.630972271641504	0.63163336465951	0.636089258196715	0.643502633641048	0.637480305429426	0.622892574792873	0.610813766069685	0.599661251791115	0.583696107853147	0.579964582709332	0.57452726578121	0.576178521901976	0.569650361546448	0.576879695559286	0.562920270951956	0.562551343336296	0.554764435051147	0.552951217850143	0.546288559194649	0.544708384555919	0.538096825950032	0.512235123121106	0.50747166493002	0.506905621251909	0.496708691780496	0.48852919715821	0.482405738503468	0.478766647025616	0.467887631921367	0.469710798635672	0.482667513999663	0.485378270600706	0.500818558621892	0.500919283895386	0.50037083663242	0.503430159091042	0.492630191271259	0.497181788065133	0.490679021259816	0.49072104087637	0.491793519462284	0.495826990750315	0.499271580646377	0.506548879136666	0.502145521124956	0.501258564005085	0.525536776307956	0.52078512361837	0.520874177877522	0.522489700077411	0.534769316137795	0.53786015256585	0.538622175487564	0.539238596817608	0.538653612324514	0.525853142980887	0.520923788268514	0.504880935852184	0.492537179650478	0.490992720113238	0.486771868244542	0.490380047969032	0.486202997456206	0.488817300793383
0.639560598262056	0.634282970811029	0.638001756150407	0.644067995603796	0.627111082806182	0.625486071498689	0.622751350360218	0.613973604975201	0.612259201319261	0.609680723294531	0.609482486248704	0.62575690228051	0.64111512498932	0.638739659092391	0.656095142873964	0.659059049304276	0.650536989717818	0.636531208722873	0.631442587801298	0.630988317403062	0.625342560113419	0.626994953481167	0.62245718939108	0.627742548534687	0.631127239103928	0.642565476554012	0.636829674237878	0.638848969544434	0.635323317232238	0.647903911246789	0.639159387174104	0.641692054881657	0.647303374511787	0.637337377922562	0.646549021031108	0.648440432382543	0.621821125190272	0.609312555562387	0.601681947775438	0.592544701967191	0.584117935522365	0.586067781999099	0.588597915402579	0.600635547802886	0.594147191755892	0.594202504091387	0.592408280559754	0.586095064111475	0.583392103103723	0.568694803570287	0.560365891291716	0.565078318514024	0.561555108857868	0.557544764514824	0.548569834364697	0.550503959675304	0.543339773462358	0.537003969297647	0.539000306682234	0.530325721895879	0.533374279819688	0.549846645361752	0.554009310454123	0.559656675740861	0.576840458373004	0.574563225155871	0.566206951795236	0.559373015978934	0.55341829152914	0.555727953142599	0.551228631890176	0.563903023698523	0.555857368899969	0.561722888729357	0.565957599224546	0.57300673341341	0.566506437193467	0.571345949041263	0.566389623403105	0.577244197313686	0.573487219535589	0.578970052330255	0.577537511752416	0.574641101267436	0.575481128717231	0.570336143428702	0.555047588955576	0.543527875696752	0.532833939829556	0.521737911146948	0.512681908880942	0.520139985847468	0.523982085459023	0.528818957892545	0.51862753191777	0.518123781325079	0.509856629835835	0.517049277907859	0.511460593507493	0.496553152427366	0.488202603574559	0.493804983978552	0.488661112555794	0.488776537064202	0.480054597807427	0.479886874289299	0.471736962066648	0.464131850051788	0.470872801372378	0.46471293150407	0.471513758262438	0.486521855400556	0.491855896643715	0.498240898401582	0.504557231287638	0.514052281981149	0.500522498966013	0.490720975978186	0.489565761969206	0.493324225488081	0.488488972201822	0.494678149057446	0.483278182240878	0.497529122316225	0.503638893349888	0.505032768395648	0.493993996456927	0.495265334091943	0.493833586060461	0.501241429753245	0.49286264557228	0.50041271744442	0.499753588810777	0.494884072606045	0.495458659555389	0.486752590415259	0.4765174277296	0.469891369641938	0.462229961849005	0.450228119037485	0.447422981772889	0.451550143063556	0.452957915317897	0.450844132611478	0.449213517274696	0.446194734559562	0.4397430968611	0.439807883894027	0.428810646547777	0.417546802139302	0.415363520804422	0.414768311147002	0.413308860221304	0.411203819544849	0.405448381781068	0.404113497367537	0.392811551614544	0.39336174801004	0.394568899833975	0.395226486516306	0.396699216083268	0.401990087093798	0.409066055437382	0.411067646927118	0.418364005979373	0.425980905199844	0.419050335623668	0.408867195388916	0.408820267901881	0.411075894503214	0.401276003997594	0.405695884024202	0.401656446353242	0.414400951912404	0.421016078293882	0.424980424658469	0.417715275060035	0.418501189664612	0.416756402843664
0.466408472575237	0.457794358223372	0.463785710773558	0.465612216228407	0.468576064388091	0.468894968461361	0.469144531907148	0.468124774388848	0.462437447286011	0.461717041650553	0.464763458292952	0.459121613938261	0.467780581620339	0.456844737912992	0.463821211016159	0.456349859261212	0.450427228190643	0.450543158335779	0.450835042057036	0.456034386149962	0.446955176369782	0.446195248654204	0.452823157519939	0.455164821207242	0.442273765717134	0.444368377190387	0.44700155607436	0.436016284278221	0.431816513395103	0.425052297043548	0.422972305604334	0.422605275342058	0.425982197837822	0.423609595380409	0.420712886694077	0.422540548830762	0.417064838684321	0.421701984069858	0.42352164980755	0.423290724076617	0.425644030411979	0.426397141972719	0.427061642083445	0.416472225627549	0.415776542652163	0.420797115156271	0.424620380595453	0.413564168303339	0.412071075394655	0.418490433519006	0.42600542141311	0.416372711681227	0.42539823544885	0.425681361450658	0.433537499267651	0.429600920725807	0.428538410454142	0.424580783215113	0.41961917843318	0.42103034952962	0.416817759344981	0.410992398231415	0.407228721671893	0.402487331084826	0.406345666514758	0.40047926093436	0.398380198971356	0.397802168117645	0.405776846043328	0.408949743567182	0.398790248142693	0.398149897994036	0.400937484155311	0.398306838167923	0.390679254459444	0.38613720612426	0.390365113842298	0.378860181888514	0.376376748649715	0.367795945408638	0.369398580142283	0.367859125751684	0.373144272864338	0.368662345418307	0.363054201406004	0.373439191821838	0.3669181946213	0.370013468503874	0.371043235627312	0.365877886916364	0.371473682252293	0.369541962777578	0.368743924269043	0.361146997377589	0.358313048561763	0.362604537070481	0.36393214874961	0.356969034241585	0.358049250359931	0.365835761352256	0.364124820495474	0.367219737112258	0.367932605193949	0.370835082023701	0.376141961874197	0.373538980834813	0.373339595862049	0.370970231989339	0.365947887039846	0.372379306374789	0.360267359887535	0.365665649447568	0.356188568587677	0.351849846676989	0.353987076017755	0.347293701848595	0.343881859410266	0.343921912272492	0.352751463235146	0.353014281680117	0.343576135256739	0.342518647916262	0.35038914208905	0.344622987340601	0.337663115467445	0.335763866498859	0.332369629944277	0.324076870108647	0.324875999416162	0.31396528008686	0.313991104796415	0.31473947301986	0.318756092961771	0.315806350654779	0.310123347264823	0.317304607261901	0.314906372322877	0.320941246419239	0.320600862688524	0.320880001509488	0.327010297476709	0.327664179154987	0.322753662704066	0.316791384775684	0.317776405015646	0.318206572838708	0.315849323327725	0.305044243150859	0.308814164628084	0.312013304048838	0.318771436398076	0.315430101422088	0.321971447043458	0.322098275316499	0.328176558477768	0.321404496695174	0.320578332525685	0.317242819537613	0.313603435248058	0.318270648375903	0.305245006227338	0.305608556749004	0.296322215895255	0.293234949734031	0.289663027655439	0.284334696056245	0.279743452826135	0.280358784290463	0.287535616055881	0.285360799352296	0.279748568512638	0.28153354013818	0.289914812135545	0.279288171139171	0.272637611656832	0.271544025432763	0.266127603554585	0.260944082569833	0.26180303939975
0.394449710168435	0.397687656068275	0.404162978967642	0.394675798837335	0.393123060070029	0.386884519091275	0.386289908143017	0.391891926337769	0.390158837300438	0.393879718100961	0.40186553393989	0.394390976571044	0.380446998595627	0.394129980398787	0.390771833011743	0.391462524846188	0.396707901065874	0.387201477804247	0.383305355184565	0.382450338372487	0.366825634222451	0.363881614081925	0.363490977072186	0.35668911115005	0.349309960271428	0.349212009346407	0.344194486406884	0.339108296315831	0.34659719314053	0.345681487568562	0.348785709264185	0.34184690966393	0.339536061261768	0.334134187822931	0.332178619382576	0.329556047354041	0.332313779410612	0.339056129624475	0.327488158756625	0.324100727236725	0.321055838969365	0.322852684359892	0.326085508485747	0.328044510649257	0.328569866642605	0.338590988700754	0.343638957856095	0.342485974822742	0.346985454718657	0.353574709847064	0.350677313950214	0.351540465085366	0.361080682879954	0.347662281023938	0.346342599083689	0.344521587829054	0.341667279613698	0.350750268311538	0.349486566418008	0.35381374767447	0.355884821439217	0.349928128398738	0.347807780893228	0.352658020301068	0.353306424845125	0.355576116086563	0.358239855777807	0.350623876423108	0.347981642281491	0.345387783996093	0.332768691886713	0.326438582173394	0.326571775677435	0.322159779933839	0.316147324999201	0.316218729702687	0.310614535091182	0.305542171406586	0.315491731017319	0.312360954172141	0.314141805271213	0.311747296657524	0.304128550892187	0.29976514565639	0.295377964240898	0.289893687054076	0.293262616555651	0.294069815778728	0.285332312302121	0.282079308811506	0.278193187087966	0.273802533831831	0.276209965132935	0.281391817943754	0.280530286982186	0.288916522659811	0.290841262957629	0.288880799138175	0.292443980180843	0.29936916447367	0.298699376159318	0.298412245163442	0.302992335073629	0.295153310659099	0.292936853106662	0.290588100318324	0.290278300315035	0.298333601724514	0.300025908665638	0.305113156893235	0.306721522749799	0.299648565998791	0.299675347861597	0.305972817552867	0.303377025918551	0.307607455488927	0.30670590785901	0.303184950781499	0.302232781757899	0.299500168734454	0.291949089072704	0.291584214103182	0.286351266041027	0.281527653284232	0.2713171523114	0.275513132620309	0.273588454096008	0.263593962548196	0.268433392205903	0.27052800450993	0.272100098729094	0.269651174495174	0.259176008827104	0.256516703030277	0.256427541977842	0.250664827675316	0.25664252396087	0.253895222929204	0.250463458702814	0.246193237507007	0.237980535338318	0.239750387322693	0.239856040255296	0.239776236285459	0.239955548812186	0.243433927995321	0.242539900201291	0.242070671180149	0.242708010515785	0.247403271325146	0.242928392048399	0.244601787118948	0.248051788437299	0.24005389908364	0.236271326258804	0.238458985650359	0.236098580454354	0.241988335326305	0.24357503549431	0.244770891327782	0.246473028312687	0.236788695346576	0.237546113585252	0.243374863766819	0.244965600288843	0.244869429626675	0.24514841109448	0.241355632797565	0.243178259194891	0.23874206978569	0.237172784497946	0.236399981021335	0.233852462892054	0.229951357842174	0.222971921072999	0.224387682917587	0.220652044118106	0.215874858817728	0.219141231259417
0.313651335573103	0.308702799860382	0.305309508366102	0.300312521483355	0.305166708430336	0.310643758005315	0.324306592769817	0.327343004130121	0.323158418797063	0.32593947908007	0.323332037190099	0.322813052960432	0.318707038269258	0.321719142160973	0.313104859215907	0.314817610209426	0.312876186939193	0.305337110817705	0.296003303007068	0.301501647620108	0.299981269376789	0.302621444216461	0.310529150372622	0.297622807901602	0.298467987769212	0.306219674836512	0.310290954080334	0.311356662911418	0.313716587488981	0.307903165963916	0.302941462981591	0.292227295270579	0.283845268239193	0.28569997276933	0.285379548583295	0.285100170511715	0.283890392956816	0.289950758393591	0.287567548010929	0.292763563271166	0.292487540048691	0.290527262629568	0.297422834118727	0.30261081367551	0.303848288551177	0.300572212171895	0.29501946184089	0.289141914051687	0.297550962093673	0.293818428156001	0.290896854032342	0.281851117912988	0.282713147374204	0.278550184560764	0.281374027390222	0.284361811025926	0.298623663085935	0.303712208702602	0.299925574798597	0.301628134515972	0.297639617960686	0.296008704327093	0.293004400675857	0.293447023943366	0.290321511644283	0.287042445329938	0.286013726386855	0.279007541217735	0.271434422066586	0.275494832603474	0.275384637935498	0.281656305899855	0.282325423365285	0.276747634834123	0.276584314155171	0.283091858287859	0.288331012085261	0.288711592205923	0.290455338628129	0.282365667366971	0.280130916386681	0.263444205934776	0.260555178283663	0.266184645359948	0.257211208439141	0.260102480117468	0.261080697852667	0.260467075360987	0.257345712679596	0.263864431791972	0.263226948053822	0.262608859854245	0.268212045161533	0.274002110312124	0.268732236848753	0.268852594720469	0.264258450631767	0.259468757514695	0.262163725025519	0.260670324537297	0.256465413334757	0.250648524520091	0.248721068813952	0.249514200852167	0.252348341044052	0.255869975737215	0.267626960973787	0.26913039771156	0.264038206759515	0.268555908660548	0.260320798019374	0.262467589587062	0.259391513968809	0.258934943750088	0.253386863631617	0.252838836718885	0.252767995544291	0.242573550672732	0.2380376054495	0.244044262682215	0.23930849824445	0.244488356654582	0.248097410073891	0.242137965551629	0.236458822211138	0.242581229421622	0.244873934975707	0.246311052154391	0.245641585707501	0.236207041781098	0.237823218159821	0.224981486518586	0.224292697153361	0.227119243377239	0.223180641140213	0.221622261808559	0.21919413110546	0.22229523988914	0.221137556107848	0.221303220444637	0.220144605043447	0.222673569272359	0.229858756134648	0.231297561864826	0.226257671264325	0.225652820293193	0.222408579039638	0.221998205825026	0.225411930698574	0.226269682073143	0.222619663473721	0.217261591012188	0.216750820483428	0.218213600803375	0.222305138682601	0.225219475952536	0.232506797779192	0.231279311564182	0.231960125663318	0.234394090993008	0.231900561186654	0.232209411705518	0.229349880118705	0.226968786961206	0.225640464919156	0.22477533755352	0.220087910693319	0.214654033833764	0.209533508932183	0.217700662846084	0.211265086555423	0.213888640791046	0.214088169807715	0.207369507803298	0.204470379649015	0.208508068936917	0.210640860238688	0.207699416065774	0.203696368364248
0.217379589799516	0.218949120872772	0.21604302839783	0.219095475774166	0.215846428569256	0.214798076677898	0.212640015465761	0.217338118719595	0.21430803555837	0.215436837015737	0.217237188979263	0.217648037972768	0.218519288072183	0.224453797346954	0.221006931008277	0.225899595371655	0.224877077381976	0.230028211434477	0.241017940040218	0.23752214689031	0.236388556121103	0.240768631217902	0.243725804893743	0.236813187710455	0.231499171223952	0.237249888616781	0.23232700427332	0.234032685065213	0.230005626105018	0.234711383588109	0.232735944081587	0.234133338012614	0.23000538275976	0.228655672599841	0.225192479527404	0.219219499819239	0.219657272241276	0.218645075591725	0.213455952878542	0.214307015254972	0.212863535039836	0.210386884237364	0.20412951507497	0.197462022449383	0.199966010498894	0.194277837913676	0.190224260386327	0.188482058189667	0.19219999524879	0.196917069447915	0.1958714935127	0.197235971980415	0.193667348933592	0.196368939677449	0.194123691610071	0.190004813000429	0.193086046107273	0.198630258671067	0.196737101996398	0.201340923217023	0.200445939251511	0.202551509553211	0.203856036051705	0.203802593262523	0.19924562304394	0.203326571702087	0.204024461686636	0.206956426144701	0.214880175043314	0.207664616623702	0.212055656148742	0.213841292585865	0.215981958620786	0.207583349411919	0.202361625383587	0.202102659494369	0.19752621802292	0.201858102039724	0.1987014683539	0.201433193111767	0.203058877124944	0.199587727993383	0.193207856121046	0.194897263794377	0.191104863575482	0.187119427883324	0.18710936391928	0.191333091501806	0.18679476449597	0.190738827823441	0.184991709580806	0.183273156590024	0.178879544670087	0.171573667038593	0.176551698315601	0.170060483515663	0.162370974864405	0.163274359907933	0.169897480231331	0.170818219259748	0.17427537192432	0.170863184059344	0.166860577248256	0.169794104883098	0.167960848459922	0.166596114660013	0.168854830275243	0.172263036769212	0.171507334861284	0.17529200320907	0.176194496530451	0.174767160568143	0.16975546028123	0.170705728716323	0.169900348418505	0.173010721987234	0.177042100311991	0.178774317497065	0.183188173750816	0.176708320144515	0.182860457053646	0.185591636593063	0.184681472585838	0.176658238702767	0.173801963707304	0.170108107174485	0.170334490563344	0.175625667889268	0.170619108559834	0.170199932261616	0.174439416585461	0.168642025734655	0.164460407700326	0.165315723123152	0.16247940613045	0.162961955572707	0.160698389252911	0.166524902686066	0.161907766370948	0.164843162151013	0.159907014469345	0.158384771019624	0.155978723280394	0.151178439229454	0.157470845590971	0.145332861980425	0.140685974152497	0.141194944750836	0.147669927566904	0.146433008868681	0.149292772185324	0.147543689592507	0.140434586714696	0.144811002239956	0.143445178301999	0.137950480054502	0.142286461630959	0.145478204855815	0.143033049728272	0.1489685105918	0.143737424873621	0.144699610935652	0.141537012015237	0.139247204418982	0.136884675911116	0.138109848792499	0.138302970450804	0.141885699694831	0.142165062568175	0.140273104006701	0.147744809334794	0.149660184067114	0.145026956593814	0.137220354208879	0.138019882566594	0.13367718126234	0.136489684321777	0.140279654431727	0.133307211566275
0.175417644501115	0.179176082126848	0.181560718222528	0.184095471302049	0.187169520017756	0.179414774952308	0.182491918804102	0.17721268373133	0.175082411249499	0.172190494540612	0.179073976208795	0.183142823684718	0.180410212825064	0.184919351402546	0.180597461902252	0.183713100954945	0.176639776028483	0.173626715933664	0.174539132612281	0.171602797463816	0.173229272530603	0.176131039046691	0.170591552570757	0.172662334367845	0.174719781565491	0.171380556896827	0.166865467559569	0.1649394163209	0.161262841137708	0.159869467546488	0.164290988161689	0.161230515916994	0.16449077354519	0.16215995804134	0.165128170807341	0.158738078281586	0.157099093411761	0.154647157768654	0.152382370728624	0.154839463024386	0.152303053666233	0.15729332387747	0.16130591252911	0.158215087278962	0.160303471183817	0.15776275579556	0.156164089264565	0.161373267941427	0.160966987820735	0.155843685963438	0.157319445807831	0.160535687191769	0.16284461786373	0.164669746002512	0.167674556540627	0.162078924872012	0.162968881775375	0.160194500449148	0.159746720275462	0.155911621698924	0.159827057545406	0.164102356743642	0.161501841277889	0.164903118490689	0.159799961966982	0.163484972565933	0.156614835996197	0.157109354149973	0.1542873987872	0.154374980857145	0.155175462492276	0.156969593228159	0.151049583803838	0.153208005731355	0.154480558249715	0.15400841401176	0.150290477911102	0.147231591133005	0.14428899204912	0.141465262661561	0.147931468103843	0.143188747838306	0.144855062691083	0.146722050459028	0.148831386574063	0.142625743247707	0.141507673185454	0.139946175309586	0.13921471146172	0.140996607541789	0.138220044781144	0.142570242672932	0.141774360826102	0.14445380368853	0.142752605716397	0.139671611200761	0.137298220071794	0.143779109332377	0.141263029416817	0.136740628342365	0.142802867482865	0.139191772692231	0.141703407770228	0.146730461994543	0.145487802254321	0.141835201111211	0.142229307725384	0.139724411918394	0.139392739192654	0.136580760503325	0.139197101346654	0.139402425693089	0.139910991582188	0.139817722349213	0.137289662065828	0.139945910695484	0.131404904631225	0.133086128236148	0.13246990367605	0.129930917766268	0.133391415772648	0.134142841006132	0.126097545541708	0.1278774561376	0.130206978617246	0.129981550978288	0.129039859584889	0.124664344112196	0.122299826690301	0.120804530884967	0.12413349953186	0.124344424518008	0.125256939425201	0.125668840231287	0.127307225536514	0.126850381463519	0.121833151009796	0.122280248340086	0.119125316916703	0.122064083590764	0.119521298180357	0.123849484121828	0.120137738260845	0.122787215808506	0.121743697138283	0.12020332631164	0.117501234934617	0.125253817204232	0.123151184783465	0.119178303018683	0.120041529050053	0.119810672272285	0.122345325223638	0.126939861203316	0.125119244967536	0.119321075956472	0.119957485300955	0.117865424738967	0.117091571471561	0.114267787127769	0.117453899294865	0.117094455116117	0.118651423774542	0.117438768091101	0.115738716633826	0.11554713772737	0.112237204148486	0.11535064656819	0.110402735430318	0.108028861370526	0.109334008763961	0.109700697751554	0.102874751771407	0.104107121805516	0.106033314628406	0.10486316708657	0.106408056423597	0.102510014314544	0.100206400813521
0.127331012530953	0.129603893601286	0.130769105062298	0.128120147173604	0.127817697829233	0.12896944322802	0.125943203616316	0.126688043481756	0.127928524812444	0.124168596788576	0.122003220199075	0.119689900081209	0.118387295798865	0.118659535815676	0.117337668615559	0.111909093590663	0.1052047442254	0.104651637823191	0.103822454080242	0.103198063675294	0.104849221786296	0.104328559711717	0.103935231415849	0.104804125655084	0.106037329119858	0.102809389288892	0.0998737524138559	0.0997186206029185	0.10125501248669	0.104117347038792	0.101369745975421	0.103456331547902	0.103594446179906	0.100662906575425	0.105386500533234	0.105783549644061	0.107456497823624	0.111090248916579	0.108344529588607	0.108772768883127	0.113931769631379	0.121452847520501	0.120126084233684	0.120242554318955	0.120040844076255	0.119829802149458	0.122774840155086	0.119990807644326	0.119368717064903	0.117232694815802	0.117820069565326	0.122190122768973	0.120775884647608	0.118618805745904	0.117008538074974	0.120096050069133	0.119525244193356	0.118151276284755	0.119277210992328	0.115978495767374	0.115394798624431	0.111775943823774	0.111384589988637	0.114090197685291	0.110488390870548	0.10385578904361	0.0978325922908484	0.0984306979210117	0.0968251839891744	0.0961404536520381	0.0957965337407715	0.0947612555430709	0.0952876167153352	0.095563263708291	0.0948705009509982	0.0920663323847147	0.089052584658755	0.0897312043203652	0.0912675962041371	0.0912214564244033	0.0890631664375015	0.0903896129349027	0.0899406503532438	0.0872754302715255	0.0924888429118007	0.0898304519400656	0.0927865509360197	0.0957996150110426	0.0951586150639417	0.0970804495970074	0.0995084279681364	0.104303296046207	0.103197269573526	0.105710134454749	0.10330518063757	0.103973197479794	0.10328084061097	0.103696756518022	0.104317339452728	0.102925340796526	0.102497684680584	0.106112097262607	0.105410028683202	0.103583132982105	0.102635621115879	0.105723133110038	0.105296737420343	0.104841356288435	0.106445721426135	0.106043580500741	0.1046079141706	0.0998264822291754	0.097804974596006	0.0979695589897834	0.0981586122977319	0.0912937835994239	0.0848843992899326	0.0861847620282839	0.0833970623058696	0.0841100986765334	0.0850990292614428	0.0832853517388128	0.0829001068621647	0.0824804968552142	0.0831566014484807	0.0810783005483171	0.0781487356311538	0.079284806494535	0.0795222913598633	0.0788718660111586	0.0767666419513222	0.0746962175225836	0.0767957933826195	0.0732915276484575	0.0746780408157055	0.073560145357152	0.0757247952563352	0.0775383245709606	0.0769024303898269	0.0782106646813532	0.0840961499550537	0.0890312737941812	0.0874393256075535	0.0888090105340517	0.0840346545316864	0.086210150636124	0.0852404634270841	0.0850410674636918	0.0836763247713309	0.0845360664443556	0.084415765273525	0.0880087986360415	0.0871587426138681	0.0862655792870103	0.0863882565748588	0.0877085850390543	0.0873351121795628	0.0869505240044191	0.0888389823970896	0.0872754820670353	0.0860128626184651	0.0844382571209185	0.0802003889101559	0.0806971750625722	0.0792087769847648	0.0742255466284968	0.0689237871242382	0.0725406481231159	0.0665583189499202	0.0685999342293049	0.0667270270377024	0.0651581742087866	0.063890837418372	0.0650845844428882	0.0651600241800915	0.0643451439406941	0.0607307313586711	0.0613734130796245	0.0614491921120546
0.111863542387442	0.114055888544195	0.112860406392661	0.112122310879759	0.109399427355341	0.110739792619829	0.110653724211624	0.107893160066911	0.10873590361452	0.106763704598976	0.108774249443401	0.108934391067813	0.105678699101961	0.105401004467014	0.105046704825849	0.0999230012882506	0.098052242323531	0.0954556339205246	0.0945396787571592	0.0902989245880712	0.0880736613266129	0.0895931291676723	0.0919135410190055	0.0933182190375257	0.0901735557764572	0.0865366635583568	0.088259906625986	0.0869621839901453	0.0843266263731771	0.0892938614350462	0.0854773754692005	0.0865723442320891	0.086123746754919	0.0859658508721695	0.0888283111822895	0.0850683053271893	0.0847740406134294	0.086748815625698	0.0875598209323218	0.0881030999104722	0.0911281857998526	0.0933013362494276	0.0944274553346586	0.0961303277406459	0.0998183921602895	0.101449609821772	0.0976261949871474	0.0975013808661606	0.0934491458908844	0.0960893348851212	0.0972879938839366	0.0985317378800707	0.101460780842146	0.0995444485219567	0.0961674006737255	0.0983176533975985	0.0981248878436629	0.096270212769719	0.0963321276749839	0.093478369372988	0.0964633583207852	0.0974572514177452	0.0949849917892679	0.0961270958735404	0.0943094796903967	0.0888398991321039	0.0875123173496606	0.0855206074354291	0.0849829452923027	0.0816854032835544	0.0778734125883291	0.0827533927623122	0.0832966072488181	0.0855287208244626	0.0827310295969744	0.0789457129429144	0.0771206803763965	0.0766754089044006	0.0784975119993296	0.0803733977042237	0.0785343749090514	0.0791894263787218	0.08011197326726	0.0789671287376398	0.0797484368167303	0.0765772786231093	0.0763057064104409	0.0768342932806314	0.0766667035935185	0.0775802075832137	0.0810523926912065	0.0819739828608051	0.0807615085340267	0.0824493077822261	0.0854525245370099	0.0866456452601743	0.083036712940502	0.0798947290124407	0.077125935184286	0.0822518840096497	0.0827008395420467	0.0847254121805251	0.0858338453793683	0.0849572941800668	0.0822140921783059	0.0840925462902146	0.0823171636700336	0.083315314428238	0.0826923816686432	0.0827007590203209	0.085249065242932	0.0853947821744076	0.0840791690676847	0.0853121516805127	0.0821126060361484	0.0793919722920314	0.0788981419821358	0.0791590523683956	0.074385237372561	0.072827865054479	0.0727100022138262	0.0778481646335581	0.0787348477491977	0.0792758691824015	0.0776614848330268	0.0726297439017423	0.0722197513781559	0.0692578405906065	0.0717268205051307	0.0720778398973827	0.0694084249352219	0.0694455405120747	0.0690590846967407	0.0698721863468855	0.0694986278869735	0.0677349908131716	0.0672025402682672	0.0663740560199072	0.0683814240402816	0.0668003767732704	0.0675645447466042	0.069031790618142	0.0678629776988204	0.0709221555824945	0.0720467871124769	0.075310867947794	0.0696215118051866	0.0677048210080062	0.0665248137264034	0.0697221341633917	0.0727717382272948	0.0743690191290894	0.0736969297387808	0.0703400068657723	0.0696423579681657	0.071905449042465	0.0707875399330493	0.0696123384636946	0.0697191734846116	0.0684260327033372	0.0703435370450833	0.0690396640699689	0.0692552437439483	0.0702731475958574	0.0683078383306425	0.0670422066161742	0.0637428362207087	0.0656893317105711	0.0610905289324208	0.0595331566143388	0.057937862584841	0.0618105489357739	0.0626975649821526	0.0627117564532752	0.0593418825492182	0.0577883241765535	0.0553783911589593	0.0543540235711136	0.0566824806948425
0.0853871163864288	0.0848440302345747	0.0843210431713093	0.0848263204771756	0.0829282809710112	0.0818131809810046	0.0812989333994023	0.0797736944734054	0.0816064688503144	0.0809917643032349	0.0773717024130055	0.0769622028711133	0.075050706818868	0.0732087037145382	0.0683486924771454	0.0704772115039786	0.0714745449763983	0.0712021165670902	0.0730268934153884	0.0722545926652744	0.0688405286745875	0.0673369268756249	0.0619327814437034	0.060509326783167	0.0586339339969394	0.0578078333492912	0.0575171680285976	0.0595664513719665	0.0597883849393599	0.0600742938773576	0.0622433119430146	0.061935201453804	0.0634226602638571	0.05906147372661	0.0603552444430841	0.0644161951458863	0.063936335090408	0.0651188800238304	0.0657429498405678	0.0695578317333608	0.0671566199125778	0.0664215880322463	0.0651427503587273	0.0652934852648086	0.066126369149976	0.0697508432007784	0.0705793139902491	0.07524484197345	0.0746816260232867	0.0766505289518401	0.076277496150453	0.0763550970165309	0.0739861298044527	0.0741879975476224	0.072514528345136	0.0710341231578494	0.0711306436262088	0.0713627078502995	0.0724642171095082	0.0719260870146577	0.0696264678790193	0.0683554251488279	0.0672739772351405	0.0654152258204318	0.0619367080814467	0.0630093492340255	0.0644618957246363	0.0648999875701358	0.0659038809076795	0.0640383837271691	0.0596750235746657	0.0590927071220898	0.0528101130769817	0.0528484152567805	0.0513709698569073	0.0501298991445497	0.0516482248109687	0.0525837726530955	0.0527829042738647	0.0539886581669378	0.0536632270522974	0.0525258732512329	0.0533544663436818	0.0503270088547378	0.0525075107802319	0.0559018968771169	0.0559982977007975	0.0565846470113013	0.055754473731538	0.05919227974139	0.0576678775404359	0.0569541508775868	0.0561160789836563	0.0566981138413152	0.0574207872962745	0.0609492803695924	0.0644341754049983	0.068111500444635	0.0658498727828894	0.0655573711329994	0.0665758466679989	0.0659906917293738	0.0642844803219985	0.0635969449477662	0.0653119530398139	0.0614341515856286	0.0614991326133399	0.0614834497882614	0.0621228880503994	0.0607232147672496	0.0574994317488234	0.0564824582099467	0.0576038252789193	0.0558051618790232	0.0524108269488345	0.0540841329574766	0.0556850588915907	0.0554303803327696	0.0545633250329431	0.0531872829913954	0.0486437590526108	0.0466245403244089	0.0440719387913641	0.045513113689077	0.0435932174724963	0.0428619822073141	0.042564937743766	0.04395017693598	0.0431398761810652	0.0437812527662617	0.0453350316267384	0.0456504764464276	0.0447344352291376	0.0429480783050691	0.0457699568157597	0.0474795079668984	0.0485059612918756	0.046852996802252	0.0480379116188383	0.0503074197472533	0.0491785046994285	0.048204475510636	0.045852599077413	0.0459648533563066	0.0456437778395226	0.0495866369222439	0.0500398605861007	0.0530697539923544	0.0517241971381496	0.051366889509252	0.0532928078864693	0.052608233692598	0.0511205081455365	0.0516770171463909	0.0517401206240017	0.0482235596947335	0.0490964962847675	0.0492862270894052	0.0506105130164029	0.0481502354221029	0.0461211521413445	0.0451396189320194	0.0466661960716718	0.0463265248295466	0.0426304845562867	0.0442527887465392	0.0468041207163612	0.0470592776047155	0.0470564559780534	0.0464872702002615	0.0441945889906818	0.0418864757499632	0.0394570657093418	0.040018446796278	0.0383719903522099	0.0375765944401	0.0371306461688639	0.0386183717159254	0.0372316774742852
0.0611197032859965	0.0590649082974989	0.0592810643436213	0.0592779016890101	0.0609255364422957	0.0622527109090771	0.0615979289789322	0.0633933094599929	0.0634185241638438	0.0621999073417064	0.063310049498601	0.0625677670414276	0.0634909527445909	0.0621642607515298	0.0628640139324241	0.0609623936185875	0.0590530307665827	0.0598263646710539	0.0579525441346312	0.0556453153588571	0.0566332681235254	0.0559684426205344	0.05269541893121	0.0493045298857876	0.0498181895635602	0.051778056304777	0.0518465709059971	0.0526106888009937	0.0498761200239662	0.0473382239761047	0.0460110495093233	0.0477657063890162	0.0464624287703678	0.046437240749647	0.0453082124550704	0.045179389032192	0.0456450017109223	0.0438521558925513	0.0443135569724167	0.0436344933587868	0.0455795847522867	0.0480875427620668	0.0486413494725711	0.0492865942395159	0.0516833652121171	0.0477542505140303	0.0500118843230208	0.0511142631057778	0.0549279986959525	0.0520507025678091	0.0516917831619696	0.0515936094700681	0.0522507632023114	0.0528830334019791	0.0533286925669489	0.0546558670337303	0.0538244763980591	0.0547286130856778	0.054965077450335	0.0538892676554252	0.0544368724861419	0.0555213867303383	0.0546748203358665	0.0544786508079128	0.0538956508184142	0.0526354070897741	0.0507260442377693	0.0508145304773807	0.0481030932336427	0.0460690060425051	0.0485285086721331	0.0478688710939276	0.0450514200156186	0.0440804441750877	0.0444546517957124	0.0458211066530013	0.044183379405834	0.0448374505097782	0.0434752440443068	0.0418276092910212	0.0409476003052761	0.042615268282546	0.0413782899990561	0.0404712507093096	0.0400988276552673	0.0399493146651244	0.039267182574742	0.0386718983896296	0.0388245968379199	0.039656481536798	0.0407113116357219	0.0426206744877267	0.0427273157171948	0.0445978536150205	0.0455250125191629	0.0434842912973732	0.0460526052586213	0.0468443038891207	0.049188487812505	0.048126372037001	0.0469117297937458	0.0465283608448788	0.0473928888783421	0.047058272495896	0.0471652835601878	0.0480452925459329	0.0459795254293471	0.0462891287734443	0.0467663237254887	0.0470427658020464	0.0458660545421331	0.0479900372120999	0.0472276536264245	0.0463901075132744	0.0464484841089723	0.0449167054321845	0.0416935918749411	0.0416018561615076	0.0398136382274284	0.0394322083574946	0.0403828095842584	0.0413940202950635	0.0381053309779265	0.0358383529937288	0.0359940305739095	0.0386221763846863	0.0365318837729969	0.0363522034043934	0.0370651224473338	0.0344668864672843	0.0356843978348148	0.0357364177745409	0.0351797562944901	0.0349389990239728	0.0345665759699304	0.03480597666282	0.0327013702785328	0.0328630890081449	0.0341478006023312	0.0346167026289695	0.0357136015146645	0.037175798885633	0.0371616076854938	0.0375371533957383	0.039008703260698	0.0369679820389083	0.0395362960001564	0.040052316908996	0.0421169176050678	0.0416717272503516	0.0387244295126482	0.0402963112355875	0.0406833659054109	0.0411561370954365	0.0418838351776603	0.0412631481597283	0.0405204468145529	0.0405502783325225	0.0407910356030399	0.0426820577944896	0.0407497059129528	0.0422730237268563	0.0421113049972441	0.0418744237401573	0.0394377547053577	0.0394390162012346	0.0383972575861016	0.0383055218726681	0.036517303938589	0.0361358740686551	0.0370864752954189	0.0357702282153432	0.034583428995715	0.0325789163144559	0.032801511491814	0.0355946469563687	0.0337581460987398	0.0333710914289163	0.0317902017064258
0.039273000963667	0.0404370068694668	0.0415450218824945	0.0410753532839153	0.0413163273572589	0.0415671486935234	0.0416715051432535	0.0400390876616131	0.0398955924750819	0.0398231993227074	0.0411903765919958	0.0406379831349091	0.0422122136945503	0.0437744240727405	0.0447032461344649	0.0452283198444725	0.0457314465141553	0.0478459613823367	0.0462610867914923	0.0462612057565364	0.0456644834482886	0.0444177255567318	0.0453091632218953	0.0458267300526494	0.0462371153519885	0.0445686046344379	0.0429526395022285	0.0417547359566969	0.0423898842338356	0.0413420538967361	0.0421739905754744	0.0410120641314623	0.0424449415411421	0.0427648058950171	0.0422602088315018	0.0404114631749325	0.040419465671202	0.0388452351115608	0.0377018061412089	0.0363542026716462	0.0358291289616386	0.0353260022919558	0.0345818159943391	0.0351300251759269	0.0352996787953023	0.0362078634799147	0.0371431589951069	0.0350117595914492	0.035104643201269	0.0337195802868198	0.0362232274942355	0.0353329661996595	0.0371722463303875	0.0360029971816879	0.0364501626627241	0.0369945536235414	0.0367801524279979	0.0360785401360183	0.0363413644033394	0.0353183700242011	0.036835523840806	0.0355953363456823	0.037085384096527	0.0382909040155186	0.0389757516803784	0.0388159777255263	0.0397662698762453	0.0405731261400011	0.0402959101535823	0.0407581001156972	0.0385852306500188	0.0387929112489417	0.0391399579532879	0.0394192512107922	0.0401148055186898	0.0381533317516053	0.0377205909635057	0.037016076560402	0.0376512248375406	0.0366033945004411	0.037059238005162	0.0370802609989231	0.0398124244182881	0.038172629433765	0.039342435057446	0.0381350659860732	0.0381430684823427	0.0360063005965236	0.0348628716261717	0.0338561266608039	0.0333310529507963	0.0323807608000773	0.0332954176104378	0.0325359681876	0.034026257044588	0.0336977258689255	0.0337778906920634	0.0324802427609534	0.0324499348783499	0.0316655368199639	0.0332789227328036	0.0332789227328036	0.0353383694666344	0.0330874105265327	0.0335345760075689	0.0334582799504542	0.0325133185482696	0.0310207437531969	0.0312064733614423	0.0297488223157004	0.0310247007000705	0.0312496097200415	0.0323601100232802	0.0339096191029366	0.0338254362941401	0.0346269845768142	0.0347001372988035	0.0349971581153839	0.0352297775761405	0.0348212245839855	0.0323910242264128	0.0319133351504837	0.0312666818782916	0.0310885239340249	0.0321220995484143	0.0298673370503782	0.0295555748625379	0.0297126036477334	0.0297470870688088	0.0287373842615947	0.0297376187271329	0.0321568336849067	0.0314763851523559	0.030424110322525	0.0332293648378295	0.0308498573807614	0.0303417400036935	0.0288516922528488	0.0279870308380521	0.0286497866427551	0.0274619571280445	0.0257048087135696	0.0266194655239301	0.0265448637659521	0.028371763273194	0.0296528200746155	0.0303596160080768	0.0297389289901447	0.0293164220783482	0.029401696412795	0.0308493711498352	0.0300937305282116	0.0312916340737431	0.0296310041755709	0.0300781696566071	0.0290779351910689	0.0292888514253785	0.0274054681010046	0.0277500670104804	0.0267111973725769	0.026616644031889	0.027504308856563	0.0286148091598016	0.0294794705745983	0.0301907135304297	0.0310678529591594	0.0311410056811487	0.0302263488707882	0.0294940943650104	0.0277570833902723	0.0257386160207803	0.024600068564184	0.0246763646212987	0.0244781845151633	0.0255117601295527	0.0237008760652998	0.0237008760652998	0.023336723992316	0.0235222258327442
0.0385566964133253	0.0385388783804888	0.0366736279080916	0.0390991132779227	0.0402466736650291	0.0412964907286193	0.0395717899354646	0.0409668658007233	0.0399462555823679	0.0403035333661668	0.0392000774040471	0.0397191436505616	0.0405616437568003	0.0398217493401034	0.0395680641146279	0.0386927896953263	0.0356131363262789	0.0361674654318558	0.0354984136644564	0.0345725039311243	0.0340950305674845	0.0325441965757107	0.0334402939013767	0.0326118049453536	0.0322563401806099	0.0321248102688838	0.0321626504635891	0.0334072139180543	0.0319914313554372	0.0307173874487764	0.0303027375014614	0.0305090518906813	0.0294335081550422	0.0301566781039347	0.0305270008495235	0.0295973215994638	0.0302821692643236	0.0295963366813395	0.0295963366813395	0.0299900626850694	0.0312828461154721	0.0341653783700997	0.0345089225955712	0.0344428112356161	0.0347023684360264	0.0355512130444745	0.0370600586915561	0.0359196424283121	0.0366630674217971	0.0359403939668378	0.0360719238785639	0.0366547707017906	0.0347895202293933	0.0366524682730467	0.0377619011302676	0.0383411621270225	0.0383504380614693	0.0394709019127605	0.0386607430614449	0.0385158296018127	0.0385994125479838	0.0380895771008084	0.0375280246927549	0.0375280246927549	0.0378950264852114	0.0367820698820863	0.0329589830039947	0.0338737407845073	0.0332440874646561	0.0324219929380681	0.0324219929380681	0.0308711589462942	0.0311045004672572	0.0308766763672974	0.0312060592674134	0.0303896816908276	0.0298068348676009	0.0316720853399981	0.0286980412087009	0.0275886083514799	0.027009347354725	0.0270000714202783	0.0265872834893421	0.0266897664203026	0.0283866119121402	0.0267988613838684	0.0285906373357232	0.0273604137919219	0.0273604137919219	0.0277541397956518	0.0283392473056995	0.031221779560327	0.0315653237857986	0.0313124847513455	0.0299164084209096	0.0307652530293577	0.0329368544811423	0.0315424395376352	0.0311583697129757	0.0310363611140796	0.0318306468305087	0.0317507378490324	0.0309965834642791	0.0329176811996865	0.0334064270389755	0.0339856880357304	0.0339949639701772	0.0351154278214684	0.0338770786726477	0.0330473175481557	0.0326210650471514	0.0320585277209736	0.0320595126390979	0.0326870248708732	0.0319262970746868	0.0310806791253203	0.0277509813896565	0.0284256484349083	0.029878447055662	0.029056352529074	0.0282075079206259	0.0276235913749415	0.0279571513744296	0.0270587506153843	0.0285504545439999	0.0267692030008797	0.0261693616627471	0.0260562812554412	0.0241933332117879	0.0232136968926451	0.0220718985697124	0.0220626226352656	0.0218324200785504	0.0223878822340151	0.0240024077621061	0.0229590481946516	0.0240659764816467	0.0239677660837413	0.0239677660837413	0.0236538161671162	0.0244994341164827	0.02718775526695	0.0265551570084693	0.0251708677007127	0.0252616971096006	0.0261726326666884	0.0266381843684871	0.0270427039918865	0.026658634167227	0.026658634167227	0.0281377675485158	0.0274765699966558	0.0261598782857246	0.0290762541354095	0.0295649999746985	0.0301442609714534	0.029748264575734	0.0299291105340079	0.0298161116859651	0.0268489086987127	0.0278922682661673	0.0264976210333411	0.0252195037916909	0.0262941815045025	0.0255334537083161	0.025329212344146	0.0226202016264142	0.023294868671666	0.0240164021747195	0.0245262376218949	0.0236773930134468	0.0230934764677624	0.0221445658835457	0.0225286357082052	0.023213483373065	0.0230775575304432	0.0222205353259518	0.0230273915897077	0.0193041594762669
0.028266007243831	0.0278190387812317	0.025452775180095	0.0267362691429861	0.0261549805726023	0.0245182293247819	0.0250984615800202	0.0250984615800202	0.0261404573153788	0.0258286951275385	0.0262292547725304	0.0240844311917821	0.022750744965945	0.0224598149360672	0.023451218401224	0.0239768581178354	0.0211434267031491	0.0206948737825151	0.0219070059369999	0.0210304010187871	0.019214606565967	0.0173920645427077	0.0185322937110504	0.0185314532975052	0.0196923662492948	0.0188863562779469	0.0187924992220962	0.0207115973421966	0.0194281033793055	0.0211989777164735	0.021064854627126	0.0199577924098064	0.0199577924098064	0.0192275588622881	0.0200516126002925	0.0194476862352282	0.0204449928359633	0.0225710689405722	0.0220696090916782	0.0210782056265213	0.0221369675605449	0.0237912696547624	0.0248346202234524	0.0232431051086775	0.0234990230089583	0.0253148174617784	0.0265560709146539	0.0255298837774563	0.0245264208652805	0.0233655079134908	0.0246326789222438	0.0237385449786083	0.0231029408213989	0.0231029408213989	0.0231029408213989	0.0223725669832658	0.022573251790898	0.022573251790898	0.0236152475262566	0.0223440162340834	0.0222711713756184	0.0198270981417403	0.0182108574843068	0.0182024818860254	0.0191938853511822	0.0177678194356043	0.0161135173413868	0.0154889481805352	0.0172823689054038	0.0156501233655674	0.0144156174831311	0.0134833367544477	0.014374903218693	0.0146227255092452	0.0163104684231161	0.0136013008501314	0.0141281308122126	0.0160472289323131	0.0144197458087572	0.0150825016134601	0.0155296670944964	0.0149494348392581	0.0157562911030139	0.0155582178436788	0.0163822715816832	0.0161714519255994	0.0176955884884158	0.0198216645930246	0.0185133484803749	0.0178892489967723	0.0183066343455995	0.019960936439817	0.0198298649790451	0.0186319432513877	0.0188878611516685	0.0209282604128169	0.0210546477627882	0.0209187219201665	0.0205359460259227	0.0195099866778246	0.0209366836671045	0.018615852734189	0.0183242377376445	0.0183242377376445	0.0176614819329415	0.0175938638995114	0.0177945487071436	0.0177945487071436	0.0171857657027229	0.0173037967385024	0.0165725316208022	0.0150483950579858	0.0137291752171328	0.0142306350660268	0.0154961111348257	0.0144373492008021	0.0135386877282082	0.0136949472097009	0.013449284490311	0.0131933665900302	0.0125401492779777	0.0110265799789105	0.0119181464431558	0.012165968733708	0.0125712410638741	0.0129385450454284	0.0134653750075096	0.0137569900040542	0.0130721423391945	0.0137348981438974	0.0138025161773276	0.0136018313696954	0.0144086876334512	0.0142106143741161	0.0153863857822146	0.0148238484560367	0.0168748149809343	0.0169768197694374	0.0164753599205435	0.0147478128546738	0.0158065747886974	0.0167052362612913	0.0172117325845015	0.0167946394991885	0.0175773873615506	0.0181086687262951	0.0182350560762664	0.016635813691666	0.0170086784190458	0.0159827190709477	0.0156154150893934	0.0150885851273122	0.0154818177956273	0.0154818177956273	0.0148190619909244	0.0147514439574943	0.0149521287651264	0.0141452725013706	0.0143433457607057	0.0144613767964853	0.0137301116787851	0.0128963602062374	0.0115771403653844	0.0125406712113491	0.0131647706949516	0.012106008760928	0.0112073472883341	0.0107008509651238	0.0111179440504369	0.0118443140844787	0.0103852033937141	0.0103852033937141	0.0112767698579594	0.0102411493258766	0.0110192863834225	0.0113865903649768	0.0119134203270581	0.0115201876587429	0.0115201876587429
0.0240701748944086	0.0246908619123406	0.0240890885586613	0.0227394283047907	0.0235882729132388	0.0237382494605552	0.0241619193932814	0.0245883222717345	0.0265010521805382	0.0266823341996751	0.0254064745354394	0.0248439372092616	0.0263969543085405	0.0265300997242556	0.026331606646069	0.0270880838320804	0.0281242187153775	0.0275035316974454	0.0269785170223076	0.0265188810254162	0.0265566019077346	0.0260122109469173	0.0265595326741367	0.0261539576051191	0.0248840813517921	0.0235025878533845	0.0236375414570761	0.0243452173774311	0.0248333344430024	0.0237955543397574	0.0239528781311236	0.0228664523936944	0.0224400495152413	0.0212520333071868	0.021077302705001	0.0216218972515364	0.0217223635806435	0.0214923485640401	0.0206989568703524	0.020234694143836	0.0191227614918043	0.0185800157509351	0.0187073136264393	0.0204988205622244	0.0196919642984686	0.0201986343769674	0.0207084698241428	0.0203863155633745	0.0200568877187657	0.0219474509900247	0.021789228479226	0.022409915497158	0.0209465989551794	0.0210028728504254	0.0218517174588735	0.0227329591238901	0.0224253639389161	0.023433055387753	0.0240397830254237	0.0242145136276095	0.0241319900781449	0.02423220855667	0.0251518000602171	0.0245928594622581	0.025939407616876	0.0261690548408062	0.0272051897241032	0.0260911135637434	0.0248348337709053	0.0243751977740139	0.0230616714317592	0.0225518359845838	0.0225666899066695	0.0222185080244897	0.021867660762437	0.0204861672640294	0.0206211208677209	0.021328796788076	0.02127252289283	0.0204236782843819	0.0209364575417685	0.0198500318043393	0.0185036922548244	0.0173156760467699	0.0171409454445841	0.0172234689940487	0.0177860063202266	0.0161031926828694	0.0162000622837576	0.015380344091221	0.0146238669052096	0.0140811211643404	0.0154330732999726	0.0172245802357577	0.0172245802357577	0.0177312503142565	0.0189038415661349	0.0185483861001146	0.018574413721526	0.0189252609835788	0.0203067544819864	0.0195711360222316	0.0188634601018765	0.0189197339971225	0.0197685786055706	0.0199870644658843	0.021262161756675	0.0212989906994443	0.021905718337115	0.0220804489393008	0.0219979253898362	0.022281133746933	0.0232007252504801	0.0226417846525212	0.0239883328071391	0.0247448099931504	0.0247607257719384	0.0234087736363062	0.0216172667005211	0.0216172667005211	0.0211105966220223	0.0199380053701439	0.0202934608361642	0.0202674332147527	0.0199165859527	0.0185150702924236	0.0193576998164703	0.0193576998164703	0.0193014259212243	0.01903386988316	0.0182340954524625	0.0179298606677394	0.0169221692189025	0.0163154415812318	0.0161407109790459	0.0166027819761167	0.0159400261714138	0.0150204346678666	0.0159715742950186	0.0137553537475679	0.0133404240825746	0.0126960146297455	0.0133167016476775	0.0151082085834626	0.0145269200130788	0.0150335900915776	0.016206181343456	0.0151879700727327	0.0152139976941442	0.0161855319741289	0.016421969655656	0.0155061874096201	0.0153991763453283	0.014854785384511	0.0157036299929591	0.0159221158532728	0.0165592433741232	0.0162884307169133	0.0171597774892736	0.0170698889567698	0.0166078179596991	0.017270573764402	0.0181901652679491	0.0190286347046917	0.019536713422567	0.0200861087484209	0.0201020245272089	0.0187500723915766	0.0175398540261753	0.0175398540261753	0.0170331839476765	0.0160135130533257	0.016368968519346	0.0163429408979345	0.0151349689364227	0.0151349689364227	0.0159775984604693	0.0159775984604693	0.015411489118048
0.0163700706535449	0.0166999337221206	0.0162065445796928	0.0167181417914722	0.0172137615204726	0.0177581524812899	0.0166706092546817	0.0169048640874941	0.0174747474671	0.0163712998848328	0.0143645207407478	0.0144238270338135	0.0152306832975694	0.014842053684418	0.014842053684418	0.0149631004407439	0.014300344636041	0.0146278874919582	0.0136594737438372	0.0144151143654608	0.0143530234168211	0.0139342420089828	0.0139801262952808	0.0148316484912187	0.0153767398882886	0.0157886209511902	0.0154900760279715	0.0154900760279715	0.0149784788161921	0.0150453964133695	0.0139384681263744	0.0156072999233663	0.0150743109517666	0.0146271454707304	0.0153253207228314	0.0173320998669165	0.0172727935738507	0.0160737382809019	0.0164623678940532	0.0162259302125262	0.0159792739032213	0.0167330837472614	0.0162396946048336	0.0168641191922897	0.0166018677130939	0.0161705695193058	0.0173701795694885	0.0165434666408461	0.0156919444449082	0.0155940185288746	0.0151970429820075	0.0145236814609801	0.0140616104639093	0.0145732076756887	0.0150688274046891	0.0156132183655063	0.0145256751388982	0.0147599299717105	0.0153298133513165	0.0137792002880131	0.012164620173121	0.0118317274369938	0.0130307827299426	0.0126161254953798	0.0116032394482548	0.0117242862045807	0.0110615303998777	0.0113467894382014	0.010420659507674	0.0111763001292975	0.0103585685590343	0.00915895850885159	0.00998567143749396	0.0104576461858257	0.0114623830959018	0.0119244540929726	0.0120879801668247	0.0120879801668247	0.0115763829550453	0.0110807632260449	0.0105363722652276	0.0122052040622195	0.0108384636180721	0.010433191287906	0.0115366388701732	0.0131512189850653	0.0118695316063005	0.0114773325771075	0.0120980195950395	0.0126424105558567	0.0119769728387136	0.0131495640905919	0.0126561749481641	0.0137133403237199	0.0137739886780481	0.01334269048426	0.0138795447297397	0.0134323792487034	0.0125808570527656	0.0120357656556956	0.0111140491456187	0.0109505230717666	0.0117842745443143	0.011462120283546	0.0119577400125464	0.0125021309733636	0.0116670506489194	0.0122000396205192	0.0126053119506853	0.0115018643684181	0.0115018643684181	0.0115611706614838	0.0115611706614838	0.0109404836435518	0.0108013650129006	0.0110615303998777	0.00942686815092856	0.0102219626364276	0.00929583270590023	0.00880244356347243	0.00989649756196347	0.00869688751178082	0.00914405299281705	0.00999557518875495	0.0101487899028932	0.0106108608999639	0.010774386973816	0.0110965412345843	0.0102627897620366	0.00976717003303624	0.00940965322910191	0.00951346843584589	0.00898047946424617	0.00857520713408007	0.00967865471634727	0.00857520713408007	0.00890809987020731	0.00851590084101431	0.00913658785894633	0.0096809788197636	0.00947761209969121	0.0106502033515696	0.0102878496541701	0.0112139795846975	0.0112746279390257	0.0101805739405347	0.0113801839907173	0.0109330185096811	0.0109330185096811	0.00992828159960497	0.00946621060253419	0.00930268452868212	0.0101364360012298	0.0102917551041013	0.0108542924302792	0.0113986833910964	0.0105636030666522	0.011096592038252	0.0115018643684181	0.0115018643684181	0.0115018643684181	0.0115611706614838	0.0115611706614838	0.0109404836435518	0.0108013650129006	0.0105994594028069	0.00942686815092856	0.0102219626364276	0.00836970277537285	0.00830905442104463	0.00940310841953568	0.00771010922692522	0.00815727470796146	0.00771010922692522	0.00871484613700133	0.0086994437704323	0.00886296984428438	0.00801847989637774	0.00801847989637774
0.00915140941770898	0.00955668174787509	0.00955668174787509	0.00955668174787509	0.0100038472289113	0.00955668174787509	0.00953095686531512	0.0102115199439669	0.00987823768316824	0.0104050676452495	0.0104050676452495	0.0104385084649029	0.0104385084649029	0.0104503569804369	0.0104503569804369	0.0107195705586415	0.0107195705586415	0.0103904859073591	0.0111197775987004	0.0115972509623402	0.0104521951454597	0.0111617244895669	0.0118887766956014	0.0109910910229577	0.00982288447568009	0.0103854218018579	0.00998014947169184	0.00998014947169184	0.00998014947169184	0.00998014947169184	0.0103854218018579	0.0103854218018579	0.0103393406340834	0.00965859353639869	0.00913176357431745	0.00913176357431745	0.00909832275466401	0.00945377822068432	0.00908647423913	0.0101846346207018	0.00881726066092541	0.00942889974380416	0.00942889974380416	0.0084170536208665	0.0079395802572267	0.00908463607410722	0.0089563953003838	0.00905557564378458	0.00854574019660919	0.00971394674388684	0.00915140941770898	0.00955668174787509	0.00955668174787509	0.00955668174787509	0.00955668174787509	0.00915140941770898	0.00953095686531512	0.0100097788211893	0.00987823768316824	0.0104050676452495	0.0104050676452495	0.0104385084649029	0.0100830529988826	0.0104503569804369	0.0104503569804369	0.0107195705586415	0.0103007891508032	0.0107009961908621	0.0111784695545019	0.0111784695545019	0.0100334137376214	0.0107623193674081	0.0102010680269365	0.0101102386180487	0.008942032070771	0.00950456939694885	0.00909929706678275	0.00909929706678275	0.00909929706678275	0.00909929706678275	0.00950456939694885	0.00912502194934272	0.00902574744107471	0.0087777411314896	0.00825091116940836	0.00874430031183616	0.00821747034975492	0.00857292581577523	0.00820562183422091	0.00930378221579273	0.00835518966385463	0.00896682874673338	0.008684274315137	0.00795498262379573	0.00862256507703644	0.00862256507703644	0.0089563953003838	0.00839281983908161	0.00788298439190622	0.00905119093918388	0.00848865361300602	0.00889392594317212	0.00889392594317212	0.00889392594317212	0.00889392594317212	0.00848865361300602	0.00886820106061216	0.0093470230164863	0.00921548187846527	0.00974231184054651	0.00921548187846527	0.00924892269811871	0.0088934672320984	0.00926077121365272	0.00779530685052658	0.00874389940246468	0.00813226031958593	0.00914410644252359	0.00962157980616339	0.00962157980616339	0.00938673814102226	0.00940611442670172	0.00921610467441309	0.00921610467441309	0.00804789812713544	0.00861043545331329	0.00764262579696933	0.00764262579696933	0.00764262579696933	0.00764262579696933	0.00804789812713544	0.00766835067952931	0.00718952872365516	0.00732106986167618	0.00667969327647977	0.00717308241890756	0.00664625245682633	0.00700170792284664	0.00700170792284664	0.00809986830441846	0.00715127575248036	0.00776291483535911	0.00675106871242145	0.00627359534878165	0.00741865116566217	0.00741865116566217	0.00648906072824332	0.00718890592770734	0.00667907048053195	0.0078472770278096	0.0078472770278096	0.00825254935797571	0.00825254935797571	0.00825254935797571	0.00825254935797571	0.0078472770278096	0.00822682447541574	0.00870564643128988	0.00921548187846527	0.00870564643128988	0.00873908725094332	0.00873908725094332	0.00838363178492301	0.00838363178492301	0.00786675997373497	0.00823406395528929	0.00762242487241054	0.0086342709953482	0.009111744358988	0.00796668854210748	0.00887690269384687	0.00889627897952633	0.0087062692272377	0.0087062692272377	0.00753806267996005	0.00753806267996005	0.00713279034979394	0.00713279034979394	0.00713279034979394
0.00810648782675336	0.00843248061428748	0.00843248061428748	0.00833263256231514	0.00833263256231514	0.00787461719424466	0.00787461719424466	0.00738122805181686	0.00738122805181686	0.00738122805181686	0.00808890397217191	0.00859536641557281	0.00849080329856352	0.00959425088083072	0.00941032652242405	0.00929648482760239	0.00875836310963437	0.00836616408044137	0.00836616408044137	0.00836616408044137	0.00965240210281324	0.0103969050787531	0.0108633525697465	0.0123276042182419	0.0123276042182419	0.0109107968658002	0.0105848040782661	0.0110175448663657	0.0106846521302385	0.0106846521302385	0.011142667498309	0.011142667498309	0.0116360566407368	0.0116360566407368	0.0116360566407368	0.0109283807203817	0.0104219182769808	0.0105264813939901	0.0101337881322108	0.00960695817012955	0.00972079986495122	0.0106511206121122	0.0106511206121122	0.0106511206121122	0.0109430935247618	0.00969777532586761	0.00898768359535481	0.00815393212280712	0.00668968047431172	0.00668968047431172	0.00810648782675336	0.00843248061428748	0.00876537335041472	0.00833263256231514	0.00833263256231514	0.00787461719424466	0.00787461719424466	0.00738122805181686	0.00738122805181686	0.00738122805181686	0.00808890397217191	0.00859536641557281	0.00849080329856352	0.00888349656034282	0.00876894993722764	0.00865510824240597	0.00811698652443795	0.00772478749524495	0.00772478749524495	0.00772478749524495	0.00901102551761683	0.0097555284935567	0.0102219759845501	0.0116862276330455	0.0111928384906177	0.0101813034683421	0.00945003835064191	0.0098827791387415	0.00954988640261425	0.00996866781045256	0.0100079017706847	0.0100079017706847	0.0105012909131125	0.0100079017706847	0.0100079017706847	0.00930022585032968	0.00879376340692878	0.00889832652393807	0.00914700984735519	0.00911356902770176	0.00873402158009562	0.00966434232725664	0.00966434232725664	0.00966434232725664	0.00995631523990624	0.00837810430488477	0.00800090531049922	0.00716715383795153	0.00619629133188393	0.00619629133188393	0.00761309868432556	0.00793909147185968	0.00783924341988734	0.00783924341988734	0.00783924341988734	0.00738122805181686	0.00738122805181686	0.00738122805181686	0.00738122805181686	0.00738122805181686	0.00808890397217191	0.00900063874573892	0.00849080329856352	0.0082421199751464	0.00876894993722764	0.00812827828032473	0.00719795753316371	0.00719795753316371	0.00719795753316371	0.00761366054086917	0.00848419555553559	0.00849409056836682	0.00950946899550201	0.00998694235914182	0.00998694235914182	0.00897540733686629	0.00824414221916606	0.0083439902711384	0.0083439902711384	0.00876277167897671	0.00880200563920889	0.00880200563920889	0.00880200563920889	0.00880200563920889	0.00880200563920889	0.00809432971885383	0.00758786727545293	0.00769243039246222	0.00743127826870395	0.00792466741113175	0.00803850910595342	0.00847544071068664	0.00799796734704684	0.00799796734704684	0.00828994025969643	0.00707903330622928	0.00701359649968402	0.00617984502713633	0.00520898252106873	0.00520898252106873	0.00622051754334426	0.00648971166397371	0.00638986361200137	0.00638986361200137	0.00597108220416306	0.00593184824393089	0.00593184824393089	0.00593184824393089	0.00593184824393089	0.00593184824393089	0.00663952416428594	0.00755125893785294	0.00714598660768684	0.00689730328426971	0.00640391414184191	0.00678346158944805	0.0059510667583207	0.0059510667583207	0.0059510667583207	0.00636676976602616	0.00687000079913825	0.00637290027950566	0.00770004089448114	0.00734376278557326	0.00734376278557326	0.00679429876036851	0.00606303364266828	0.00616288169464062	0.00616288169464062
0.0064538754586263	0.00703516402901008	0.00744043635917619	0.00744043635917619	0.00774214170224743	0.00774214170224743	0.00811795135392734	0.00799986951752138	0.00776777788224876	0.00666232066901133	0.00781716207040262	0.00781716207040262	0.00827150176518224	0.00827150176518224	0.00827150176518224	0.00827150176518224	0.00858326395302253	0.00858326395302253	0.0078115174762234	0.00726712651540612	0.00683438572730653	0.00540102927838262	0.00540102927838262	0.00540102927838262	0.00540102927838262	0.0050337252968283	0.00445243672644452	0.00404716439627842	0.00404716439627842	0.00415073138337327	0.00374545905320717	0.00336964940152725	0.00348773123793322	0.00371982287320584	0.00482528008644327	0.00367043868505198	0.00367043868505198	0.00321609899027236	0.00321609899027236	0.00321609899027236	0.00321609899027236	0.00290433680243207	0.00290433680243207	0.0036760832792312	0.00422047424004848	0.00465321502814807	0.00608657147707197	0.00555974151499074	0.00555974151499074	0.00555974151499074	0.00592704549654506	0.00650833406692884	0.00691360639709495	0.00650833406692884	0.00681003941000009	0.00681003941000009	0.00718584906168	0.00706776722527404	0.00683567559000142	0.00573021837676399	0.00688505977815528	0.00688505977815528	0.0073393994729349	0.0073393994729349	0.0073393994729349	0.0073393994729349	0.00765116166077519	0.00765116166077519	0.00687941518397605	0.00633502422315878	0.00590228343505919	0.00499575694821652	0.00499575694821652	0.00499575694821652	0.00499575694821652	0.0046284529666622	0.00404716439627842	0.00404716439627842	0.00404716439627842	0.00374545905320717	0.00334018672304106	0.00296437707136115	0.00308245890776711	0.0030770843542973	0.00395793675920639	0.00238431394997679	0.00238431394997679	0.00192997425519717	0.00192997425519717	0.00192997425519717	0.00192997425519717	0.00161821206735688	0.00161821206735688	0.00238995854415601	0.00255480205736716	0.00298754284546674	0.00389406933230942	0.00389406933230942	0.00389406933230942	0.00389406933230942	0.00426137331386374	0.0044753579026932	0.0044753579026932	0.0044753579026932	0.00518233557593055	0.0048806302328593	0.00525643988453921	0.00560042904520403	0.00536833740993141	0.00468166160453228	0.00583650300592358	0.00625528441376188	0.0062908427007032	0.0062908427007032	0.0062908427007032	0.0062908427007032	0.00660260488854349	0.0062908427007032	0.0058986436715102	0.00535425271069292	0.00492151192259333	0.00401498543575066	0.00401498543575066	0.00401498543575066	0.00401498543575066	0.00401498543575066	0.00343369686536688	0.00343369686536688	0.00343369686536688	0.00302842453520077	0.00302842453520077	0.00265261488352086	0.00230862572285604	0.00276532216645701	0.00322739316352779	0.00161048076506572	0.00161048076506572	0.0011561410702861	0.0011561410702861	0.0011561410702861	0.0011561410702861	0.0011561410702861	0.0015483400994791	0.0015483400994791	0.00209273106029638	0.0023250700482435	0.00245486658632177	0.00189232926014392	0.00189232926014392	0.00189232926014392	0.00189232926014392	0.0024736178305277	0.0024736178305277	0.0024736178305277	0.00287889016069381	0.00361015527839403	0.00325469981237372	0.00359868897303854	0.00314199252943757	0.00384966844979262	0.00429683393082886	0.00426844985763093	0.00430400814457224	0.00430400814457224	0.00430400814457224	0.00430400814457224	0.00430400814457224	0.00430400814457224	0.00391180911537924	0.00391180911537924	0.00391180911537924	0.00356781995471442	0.00356781995471442	0.00356781995471442	0.00356781995471442	0.00356781995471442	0.00298653138433064	0.00298653138433064	0.00298653138433064
0.00470170013753273	0.0054573407591563	0.00483665374122428	0.00483665374122428	0.00483665374122428	0.00423598888516104	0.00423598888516104	0.00423598888516104	0.00389199972449622	0.00348672739433012	0.00288606253826688	0.00281691435451682	0.00236974887348058	0.00287958432065597	0.00385979662432535	0.00385979662432535	0.00385979662432535	0.00351580746366053	0.00308306667556095	0.00426883422157464	0.00461282338223946	0.00480346462208547	0.00445947546142066	0.00490664094245689	0.00552732796038891	0.00552732796038891	0.00477168733876535	0.00539237435669736	0.00539237435669736	0.00539237435669736	0.00599303921276061	0.00599303921276061	0.00599303921276061	0.00633702837342542	0.00639831154292671	0.00699897639898995	0.00696084886910457	0.006914625207713	0.00640478976053761	0.00542457745686824	0.00542457745686824	0.00542457745686824	0.00620130740563264	0.00620130740563264	0.00501553985961895	0.00467155069895413	0.00448090945910811	0.00482489861977293	0.00437773313873669	0.00375704612080467	0.00375704612080467	0.00451268674242824	0.00313635910287266	0.00313635910287266	0.00313635910287266	0.00253569424680942	0.00253569424680942	0.00253569424680942	0.00253569424680942	0.00213042191664331	0.00213042191664331	0.00206127373289325	0.00161410825185702	0.00250349114663854	0.00310415600270178	0.00310415600270178	0.00310415600270178	0.00276016684203697	0.00232742605393738	0.00351319359995108	0.0038571827606159	0.00404782400046191	0.00351319359995108	0.00396035908098732	0.00458104609891933	0.00458104609891933	0.00458104609891933	0.00520173311685135	0.00520173311685135	0.00520173311685135	0.00580239797291459	0.00520173311685135	0.00520173311685135	0.00520173311685135	0.00560700544701745	0.00560700544701745	0.00567615363076751	0.00612331911180375	0.00561348366462836	0.00463327136095898	0.00463327136095898	0.00463327136095898	0.00541000130972338	0.00541000130972338	0.00422423376370969	0.00388024460304487	0.00388024460304487	0.00422423376370969	0.00343307912200863	0.00281239210407661	0.00281239210407661	0.00281239210407661	0.0021917050861446	0.0021917050861446	0.0021917050861446	0.0021917050861446	0.0021917050861446	0.0021917050861446	0.0021917050861446	0.00178643275597849	0.00178643275597849	0.00171728457222844	0.0012701190911922	0.00215950198597372	0.00276016684203697	0.00276016684203697	0.00276016684203697	0.00198343689327256	0.00198343689327256	0.00316920443928626	0.00351319359995108	0.00351319359995108	0.00351319359995108	0.00396035908098732	0.00458104609891933	0.00458104609891933	0.00458104609891933	0.00520173311685135	0.00520173311685135	0.00520173311685135	0.00520173311685135	0.00520173311685135	0.00520173311685135	0.00520173311685135	0.00560700544701745	0.00520173311685135	0.00571804678163764	0.00515550945545979	0.00426612656067827	0.00366546170461502	0.00366546170461502	0.00366546170461502	0.00444219165337942	0.00444219165337942	0.00325642410736573	0.00291243494670091	0.00291243494670091	0.00291243494670091	0.00246526946566467	0.00184458244773266	0.00184458244773266	0.00184458244773266	0.00122389542980064	0.00122389542980064	0.00122389542980064	0.00122389542980064	0.00122389542980064	0.00122389542980064	0.00122389542980064	0.00122389542980064	0.00122389542980064	0.00171728457222844	0.0012701190911922	0.00215950198597372	0.00276016684203697	0.00276016684203697	0.00276016684203697	0.00198343689327256	0.00198343689327256	0.00316920443928626	0.0029688026391338	0.0029688026391338	0.0029688026391338	0.00341596812017004	0.00358948965706582	0.0029688026391338	0.0029688026391338	0.00358948965706582	0.00358948965706582
0.00637946564926324	0.00692385661008051	0.00692385661008051	0.00647669112904428	0.00594986116696304	0.00594986116696304	0.00554458883679694	0.00602206220043674	0.0054952322383555	0.0054952322383555	0.00604303603414268	0.00586048968779608	0.00559587055310644	0.0050690405910252	0.00592147840222754	0.00551620607206144	0.00609749464244522	0.00609749464244522	0.00609749464244522	0.00609749464244522	0.00502627371954671	0.00502627371954671	0.00502627371954671	0.00491573971618922	0.00491573971618922	0.00425298391148625	0.00335313748464866	0.0038003029656849	0.00432713292776613	0.00432713292776613	0.00473240525793224	0.00473240525793224	0.00425493189429243	0.00478176185637367	0.00478176185637367	0.0046392303907526	0.00468112354162274	0.00468112354162274	0.00520795350370397	0.00435551569250163	0.00476078802266774	0.00476078802266774	0.00417949945228395	0.00417949945228395	0.00417949945228395	0.00525072037518247	0.00525072037518247	0.00565599270534857	0.0058880843406212	0.00602401018324292	0.00637946564926324	0.00692385661008051	0.00647669112904428	0.00594986116696304	0.00594986116696304	0.00594986116696304	0.00602206220043674	0.00602206220043674	0.0054952322383555	0.0054952322383555	0.00604303603414268	0.00559587055310644	0.00559587055310644	0.0050690405910252	0.00592147840222754	0.00551620607206144	0.00609749464244522	0.00609749464244522	0.00609749464244522	0.00609749464244522	0.00502627371954671	0.00502627371954671	0.0046210013893806	0.00491573971618922	0.00425298391148625	0.00389752844546594	0.00335313748464866	0.0038003029656849	0.00432713292776613	0.00432713292776613	0.00473240525793224	0.00473240525793224	0.00425493189429243	0.00478176185637367	0.00425493189429243	0.00370712809850526	0.0041542935795415	0.0041542935795415	0.00468112354162274	0.00382868573042039	0.0042339580605865	0.00365266949020272	0.00365266949020272	0.00365266949020272	0.00365266949020272	0.00472389041310123	0.00419706045101999	0.0046023327811861	0.00430759445437748	0.00497035025908045	0.00532580572510076	0.00587019668591804	0.0054230312048818	0.00489620124280057	0.00489620124280057	0.00449092891263446	0.00496840227627427	0.00496840227627427	0.00496840227627427	0.00496840227627427	0.00551620607206144	0.0050690405910252	0.0050690405910252	0.00494748295911007	0.00539464844014631	0.0049893761099802	0.00557066468036398	0.00557066468036398	0.00557066468036398	0.00557066468036398	0.00502627371954671	0.00502627371954671	0.0046210013893806	0.00491573971618922	0.00425298391148625	0.00389752844546594	0.00335313748464866	0.0038003029656849	0.00432713292776613	0.00432713292776613	0.00473240525793224	0.00425493189429243	0.00425493189429243	0.00425493189429243	0.00425493189429243	0.00370712809850526	0.0041542935795415	0.0041542935795415	0.00468112354162274	0.0042339580605865	0.0042339580605865	0.00365266949020272	0.00365266949020272	0.00365266949020272	0.00365266949020272	0.00419706045101999	0.00365266949020272	0.00405794182036882	0.00376320349356021	0.00442595929826317	0.00478141476428348	0.00532580572510076	0.00487864024406452	0.00435181028198329	0.00435181028198329	0.00394653795181718	0.00442401131545699	0.00442401131545699	0.00442401131545699	0.00442401131545699	0.00497181511124416	0.00452464963020792	0.00452464963020792	0.00440309199829279	0.00485025747932903	0.00399781966812669	0.00457910823851047	0.00457910823851047	0.00457910823851047	0.00457910823851047	0.00457910823851047	0.00457910823851047	0.00417383590834437	0.00446857423515298	0.00380581843045001	0.0034503629644297	0.00290597200361242	0.00335313748464866	0.0038799674467299
0.00422368750598736	0.00422368750598736	0.00422368750598736	0.00422368750598736	0.00422368750598736	0.00460564501526396	0.00429247336683722	0.00333889361277796	0.00333889361277796	0.00287682261570718	0.00287682261570718	0.00287682261570718	0.00255466835493888	0.00255466835493888	0.00255466835493888	0.00255466835493888	0.00314010318275734	0.00363349232518514	0.00363349232518514	0.00363349232518514	0.00342361252091618	0.00368244083986648	0.00368244083986648	0.00368244083986648	0.00384964808721145	0.00384964808721145	0.00384964808721145	0.00384964808721145	0.00384964808721145	0.00421695206876577	0.00346769057793485	0.00440154924429361	0.0044327366373496	0.00409984390122236	0.00456191489829314	0.00456191489829314	0.00456191489829314	0.00488406915906144	0.00488406915906144	0.00488406915906144	0.00488406915906144	0.00429863433124297	0.00380524518881517	0.00380524518881517	0.00380524518881517	0.00443390640092245	0.00411175214015415	0.00375629667413384	0.00375629667413384	0.00358908942678887	0.00358908942678887	0.00358908942678887	0.00358908942678887	0.00358908942678887	0.00358908942678887	0.00397104693606547	0.00395958063070997	0.00333889361277796	0.00333889361277796	0.00287682261570718	0.00287682261570718	0.00287682261570718	0.00255466835493888	0.00255466835493888	0.00255466835493888	0.00255466835493888	0.00363349232518514	0.00363349232518514	0.00363349232518514	0.00363349232518514	0.00300483111307787	0.00368244083986648	0.00368244083986648	0.00368244083986648	0.00384964808721145	0.00384964808721145	0.00384964808721145	0.00384964808721145	0.00384964808721145	0.00421695206876577	0.00346769057793485	0.00409984390122236	0.00409984390122236	0.00409984390122236	0.00456191489829314	0.00456191489829314	0.00456191489829314	0.00488406915906144	0.00488406915906144	0.00488406915906144	0.00488406915906144	0.00429863433124297	0.00380524518881517	0.00380524518881517	0.00380524518881517	0.00443390640092245	0.00375629667413384	0.00375629667413384	0.00375629667413384	0.00358908942678887	0.00358908942678887	0.00358908942678887	0.00358908942678887	0.00358908942678887	0.00322178544523455	0.00397104693606547	0.00333889361277796	0.00333889361277796	0.00333889361277796	0.00287682261570718	0.00287682261570718	0.00287682261570718	0.00255466835493888	0.00255466835493888	0.00255466835493888	0.00255466835493888	0.00363349232518514	0.00327803685916483	0.00327803685916483	0.00327803685916483	0.00297152990782586	0.00272632051778293	0.00272632051778293	0.00272632051778293	0.00289352776512789	0.00289352776512789	0.00289352776512789	0.00289352776512789	0.00289352776512789	0.00326083174668222	0.0025115702558513	0.00314372357913881	0.00278826811311849	0.00278826811311849	0.00325033911018927	0.00325033911018927	0.00325033911018927	0.00357249337095757	0.00357249337095757	0.00357249337095757	0.00357249337095757	0.00284912486673162	0.00284912486673162	0.00284912486673162	0.00284912486673162	0.00407845093490213	0.00340084120811352	0.00340084120811352	0.00340084120811352	0.00323363396076856	0.00323363396076856	0.00323363396076856	0.00323363396076856	0.00323363396076856	0.00286632997921423	0.00395958063070997	0.00333889361277796	0.00333889361277796	0.00333889361277796	0.00287682261570718	0.00287682261570718	0.00287682261570718	0.00255466835493888	0.00255466835493888	0.00255466835493888	0.00255466835493888	0.00327803685916483	0.00327803685916483	0.00327803685916483	0.00327803685916483	0.00237086505176261	0.00272632051778293	0.00272632051778293	0.00272632051778293	0.00289352776512789	0.00272632051778293	0.00272632051778293	0.00272632051778293	0.00272632051778293
0.00250661981677109	0.00250661981677109	0.00250661981677109	0.00250661981677109	0.00250661981677109	0.00250661981677109	0.00250661981677109	0.0020132306743433	0.00254006063642453	0.00254006063642453	0.00298722611746077	0.00298722611746077	0.00298722611746077	0.00298722611746077	0.00246039615537953	0.00246039615537953	0.0019335661932983	0.00140673623121706	0.00140673623121706	0.00140673623121706	0.00140673623121706	0.00183947701931664	0.00140673623121706	0.00171849841905735	0.00172889049198536	0.00204811281641348	0.00204811281641348	0.00204811281641348	0.00204811281641348	0.00204811281641348	0.00204811281641348	0.00204811281641348	0.00254150195884127	0.00201467199676004	0.00201467199676004	0.0015675065157238	0.0015675065157238	0.0015675065157238	0.0015675065157238	0.00209433647780504	0.00209433647780504	0.00262116643988627	0.00262116643988627	0.00262116643988627	0.00262116643988627	0.00262116643988627	0.00262116643988627	0.00262116643988627	0.00262116643988627	0.00262116643988627	0.00197978985468986	0.00197978985468986	0.00197978985468986	0.00197978985468986	0.00197978985468986	0.00197978985468986	0.00197978985468986	0.00148640071226206	0.0020132306743433	0.0020132306743433	0.00246039615537953	0.00246039615537953	0.00246039615537953	0.00246039615537953	0.0019335661932983	0.0019335661932983	0.0019335661932983	0.00140673623121706	0.00140673623121706	0.00140673623121706	0.00140673623121706	0.00140673623121706	0.000973995443117474	0.000973995443117474	0.00161537202831389	0.00161537202831389	0.00161537202831389	0.00161537202831389	0.00161537202831389	0.00161537202831389	0.00161537202831389	0.00161537202831389	0.00210876117074169	0.00158193120866045	0.00158193120866045	0.00113476572762422	0.00113476572762422	0.00113476572762422	0.00113476572762422	0.00166159568970545	0.00113476572762422	0.00113476572762422	0.00166159568970545	0.00166159568970545	0.00166159568970545	0.00166159568970545	0.00209433647780504	0.00209433647780504	0.00209433647780504	0.00209433647780504	0.00145295989260862	0.00145295989260862	0.00145295989260862	0.00145295989260862	0.00145295989260862	0.00145295989260862	0.00145295989260862	0.000959570750180822	0.00148640071226206	0.00148640071226206	0.0019335661932983	0.0019335661932983	0.0019335661932983	0.0019335661932983	0.0019335661932983	0.0019335661932983	0.0019335661932983	0.00140673623121706	0.00140673623121706	0.00140673623121706	0.00140673623121706	0.000973995443117474	0.000973995443117474	0.000973995443117474	0.00161537202831389	0.00161537202831389	0.00161537202831389	0.00161537202831389	0.00161537202831389	0.00161537202831389	0.00161537202831389	0.00161537202831389	0.00210876117074169	0.00108854206623265	0.00108854206623265	0.000641376585196418	0.000641376585196418	0.000641376585196418	0.000641376585196418	0.000641376585196418	0.000641376585196418	0.000641376585196418	0.00116820654727766	0.000641376585196418	0.000641376585196418	0.000641376585196418	0.001074117373296	0.001074117373296	0.001074117373296	0.000432740788099584	0.000432740788099584	0.000432740788099584	0.000432740788099584	0.000432740788099584	0.000432740788099584	0.000432740788099584	0.000432740788099584	0.000432740788099584	0.000959570750180822	0.000879906269135821	0.000879906269135821	0.000879906269135821	0.000879906269135821	0.000879906269135821	0.000879906269135821	0.000879906269135821	0.000879906269135821	0.000879906269135821	0.000879906269135821	0.000879906269135821	0.000879906269135821	0.000447165481036237	0.000447165481036237	0.000447165481036237	0.00108854206623265	0.00108854206623265	0.00108854206623265	0.00108854206623265	0.00108854206623265
