1.3375281265694	1.32564755296112	1.31683102203035	1.33787623540933	1.3527749817157	1.3573603955096	1.3636975756326	1.35247841587932	1.33986169490247	1.36519137923225	1.36065465670599	1.40349168209869	1.40096251140553	1.40007328252832	1.42764088290776	1.4164486407822	1.42289406611817	1.42719569779879	1.43468801052475	1.44675572858918	1.45501483158475	1.44611987826808	1.41886329383347	1.42600399460196	1.40576260139971	1.42032176266816	1.40369596405008	1.42092529733277	1.42348856484148	1.3866138469139	1.41500631634196	1.40757892540436	1.4180193678079	1.4107245064379	1.42686575759071	1.44299619219649	1.41257828856823	1.41988276123895	1.42211716411067	1.40020405011777	1.39956404862655	1.41514199302802	1.43006148452683	1.42914362891405	1.41849583424069	1.40605348229396	1.4180654336535	1.43225564673818	1.4400952461671	1.47227614561901	1.46507009295248	1.49433553934491	1.49502313175674	1.49155604564859	1.52002863883794	1.49428247931693	1.50653233483541	1.51323494732558	1.54189044239791	1.49632031645505	1.48904175231252	1.49102416868209	1.49570052674223	1.50051858007763	1.48897656362785	1.50897608866167	1.49033687332718	1.4797534456176	1.47751123770023	1.47788736318232	1.47796843975026	1.48977185450663	1.51625628773721	1.50132035585444	1.48678002471823	1.49789167122073	1.48192018732625	1.47475862960107	1.48521950068471	1.48938456444726	1.49373522819082	1.49394205369922	1.48708384504176	1.47942968413811	1.50704179453942	1.50448604806571	1.53143491611176	1.52027537486406	1.51387891354307	1.53842281553553	1.53551580528461	1.53734653579471	1.53372891466686	1.53743921162409	1.54989482329511	1.5502536524849	1.53174327837274	1.50218207594353	1.50110576592731	1.48290603348413	1.49239624981471	1.47959182107337	1.50257641752175	1.48726792882194	1.46259997053572	1.47887609349906	1.48524665756856	1.48993516452668	1.48021305561112	1.50702480411811	1.51459233518101	1.48410239218166	1.48719149269194	1.49097750102029	1.47029596131478	1.45418097594844	1.47713695739232	1.47190688274814	1.47808409389223	1.4608541513955	1.44627786062961	1.44783292923085	1.45515620993255	1.46213404549167	1.48537107965884	1.46397706759754	1.483845309584	1.47956692085422	1.48421424504886	1.50077830033459	1.47895549619484	1.48729544727218	1.49101338764134	1.49671899167882	1.44352585807316	1.42931775057509	1.43076915050455	1.43700214497876	1.42753279881902	1.42658126106823	1.42708478527289	1.40800350145047	1.40534886514195	1.39823205286578	1.37951904467033	1.38715965024939	1.39353230684276	1.42148231615492	1.403090150261	1.39127166999918	1.38962970575081	1.37740935238455	1.36296232636795	1.37893470647536	1.37525583745903	1.37785145655001	1.37354583094523	1.34842229296715	1.34765726106837	1.36218599245033	1.36377347845698	1.3865798448701	1.37051586548274	1.3655135872577	1.38736237323305	1.38519798951716	1.38783381000345	1.38948601582715	1.38368071724287	1.4051594147885	1.41209472423316	1.38824537021362	1.3613284047205	1.35412420900067	1.34882365926744	1.35591335288854	1.33685688830359	1.35551956303945	1.34075099314476	1.31843910945637	1.32280422668724	1.33037457838418	1.31426722240886	1.30812466646947
1.09777778215727	1.07619746864269	1.09094573345541	1.09345398253179	1.08887649347341	1.07869908673242	1.08151301824973	1.09807437592113	1.11149197786552	1.08165777236769	1.09082470191307	1.09735021485469	1.0860967294919	1.09281712779205	1.08256474939288	1.10022899932086	1.09286695287351	1.11916164744494	1.14400807252235	1.15585695107395	1.15052816896288	1.1470266368993	1.15803399097192	1.14673082603201	1.13650550265345	1.14546575366627	1.16732515337752	1.16677347189882	1.15117258357963	1.15752218415499	1.13826255979899	1.13002436058778	1.11993697111335	1.11853948275752	1.13930158022494	1.1401156903434	1.15465819524121	1.16796919430287	1.16339038759946	1.16797623727299	1.17667548557902	1.17228664272413	1.15474573469118	1.16448610636705	1.16230408662779	1.16801951749549	1.17402331810159	1.16785057689356	1.17550356411133	1.16683095517086	1.16185107664437	1.1666211095436	1.15727533518954	1.18356402214933	1.19130928613428	1.21658845110303	1.23603325464591	1.24281446153232	1.2364866858113	1.23603922371619	1.2430550291033	1.23005779791706	1.22453597768202	1.23186523341823	1.23810896881457	1.2226244770405	1.23040834584274	1.22436230804536	1.19067185328394	1.18090551815597	1.1881063068857	1.19419630752816	1.1928129439271	1.19068475698744	1.21473402101248	1.20868071786218	1.19829530925399	1.22281758123066	1.22650862958969	1.21462980906156	1.20913221813305	1.21559548131044	1.22286868938854	1.22824709394926	1.20402540365352	1.20890612177658	1.21640321158505	1.20061087988959	1.20632583902211	1.19643290988134	1.20392064150205	1.20006544604767	1.23343166194151	1.24173330469961	1.25697894967208	1.24733032869711	1.24187934908892	1.23736755394439	1.2325663899886	1.21886413491189	1.23017770116986	1.24056449253203	1.23885322310612	1.22365757514724	1.21602162539428	1.20411209958138	1.18301034870064	1.18315154760431	1.17549778651404	1.20571610280532	1.19295691710032	1.20270565620821	1.21423952169346	1.19350199569296	1.19358846932206	1.20082316023921	1.19685196800046	1.16973384542049	1.1860176327705	1.17151693936385	1.17583436027362	1.16181733780488	1.15591994203905	1.16352668424808	1.15101902501793	1.14313550125807	1.14257357029387	1.12122575975804	1.14340906122618	1.15731613665656	1.1809413179421	1.18738648512717	1.19406532630586	1.18364763311879	1.18203360295446	1.18678282369987	1.16164318015045	1.16755344857719	1.17658793228001	1.17874375444651	1.16845153713759	1.1610260168884	1.15619385059267	1.12303395867721	1.1189935214724	1.1215015015055	1.13583679411628	1.13994465453114	1.13733217052287	1.14787702911317	1.14002072419991	1.12904873997017	1.13829720803754	1.13094601525615	1.12597416388417	1.10180766190727	1.10808550295576	1.0982932358237	1.10300409801116	1.0800835845093	1.0855430962531	1.08740659155141	1.0760843366434	1.0750193203084	1.06931763038631	1.07636894252825	1.07066475241771	1.10687200069365	1.11637466739791	1.12895713455272	1.11416946809268	1.11410491518251	1.11601116450078	1.09877965125413	1.08712153338722	1.09845806939905	1.11011439838836	1.10185540718685	1.08672391663997	1.07460728363069	1.06180233800571	1.04959082377063	1.04676852743423	1.04962933407281
0.816061723408648	0.816489682977575	0.818434986248954	0.813888705459661	0.853397378459331	0.87209774990509	0.896163082615124	0.909674015770172	0.909016566245219	0.90935919496817	0.923787512721795	0.917668803837284	0.942779223685114	0.935279385273873	0.952910954277095	0.963954621562784	0.937121567944737	0.932157438954993	0.932394527518729	0.914982106366611	0.916457815998102	0.897135287267404	0.896998828478475	0.879840129882122	0.865600531826462	0.862132531842789	0.870977441655124	0.867382093132614	0.883040392451546	0.873781788714622	0.862239577574909	0.846285777408273	0.84546374875689	0.838611519147689	0.859925614770553	0.868948961808068	0.877845224280163	0.885991536338838	0.883147496752377	0.872326876243198	0.863482138440903	0.883443377452534	0.911520689362751	0.923566618469296	0.95132577219287	0.955034493231889	0.974886067871664	0.973314974663079	0.979042959386846	1.00659134848973	0.999369401249363	1.00597125789581	1.01363525488308	1.0084512077117	0.987297306064833	0.987267121186187	0.974724222742952	0.973345723462119	0.970022782554889	0.957371442549678	0.923299638202669	0.924110986541251	0.898197008352473	0.911864594646281	0.906601876352379	0.914582619374081	0.921058828311819	0.903651644596379	0.890251401890064	0.893892210520719	0.886947043554912	0.886173850453193	0.904141995928308	0.916389146117917	0.907750867869704	0.923663048684501	0.911788251937349	0.902897788586561	0.888660704652985	0.921187870948512	0.939966684960781	0.971138590740845	0.98305409521238	0.996927310843202	0.996508302090111	1.01125393779121	1.02198994601656	1.04136424256912	1.02846017670899	1.04000742485067	1.04351334271619	1.01074020720374	1.00998032170651	0.998538008350951	0.981494203390766	0.975005064647624	0.960876106511305	0.953504453466537	0.929484609857107	0.901365135883871	0.899919869815496	0.903722059330007	0.905322565042871	0.925855446100143	0.908917569349633	0.902691561351643	0.879425763921065	0.88418262452177	0.880758770185961	0.889460249999777	0.901703262812113	0.909041986837547	0.911101129467225	0.909436527920257	0.897822296518935	0.886673583217354	0.896808483214843	0.911814858244613	0.93544491377598	0.957791588880459	0.95679860516208	0.971874299506347	0.962549391135982	0.970621004957885	1.00382058083524	0.988837505437927	0.996732492783298	1.00092011823938	0.98863544343253	0.969072606080749	0.972847047752466	0.956578803586657	0.940688792687021	0.926916187930334	0.912068764214581	0.886480259648152	0.870581493723074	0.848771009442945	0.853461619214279	0.846189289014512	0.861371177829749	0.878909779143121	0.860280338302648	0.839634015272164	0.832674821373144	0.835982700464979	0.838668215125698	0.855161988795442	0.863654154124251	0.871070501708645	0.888126654896275	0.865293840559049	0.855594028078302	0.837650654858869	0.859825907721969	0.87290795932845	0.907974912035894	0.909294025177268	0.926894099681059	0.924351134865888	0.927040269231263	0.933863215516444	0.951188651403521	0.943465280431986	0.949787739241979	0.94188098833071	0.916047449125581	0.91384949620367	0.901234976217197	0.880983828276831	0.864822599259999	0.846299809337224	0.839653693847522	0.818393129576282	0.780601640048925	0.785675707896483	0.786308708213686	0.793891376267855	0.815545066810672	0.807431140343699	0.79239709684343	0.77191653287565	0.781532404707527	0.77069809197025
0.666338279894149	0.652197400218139	0.674631207936725	0.658534071509719	0.652566698354813	0.649369515694934	0.647985399797281	0.654185016767763	0.66221073116286	0.67178298226306	0.682691804923117	0.693700365665663	0.687993426696618	0.677959834411068	0.667217746064821	0.66690900977389	0.675383344635805	0.696519047919873	0.712141190028767	0.722884940175956	0.714456119991206	0.691316453479825	0.679377452285371	0.678234356614838	0.68561990011334	0.702791987152184	0.721896927697813	0.723547708474078	0.736587932245168	0.731735565768699	0.711636635486154	0.715285849432359	0.706515258746916	0.709658379200021	0.728731760285633	0.725709606304403	0.718346501713063	0.71602961170584	0.705554937064911	0.708589906964289	0.71182615614563	0.700997344684855	0.692466671002926	0.686076007073105	0.690400077506653	0.702189751223071	0.710561996143477	0.72811246684795	0.74714824818973	0.743928701942346	0.735539979349266	0.731094303376352	0.71262396920266	0.724825304048874	0.733402856774972	0.764810592733887	0.765962771124081	0.764095674946636	0.749133357906522	0.722344793200153	0.71755162002761	0.705786371367324	0.720674301378106	0.742408561262638	0.756330747603752	0.760376500751703	0.761235997721411	0.757823475831377	0.747324533572271	0.738627633253055	0.745730959758436	0.764752343773001	0.767093677478734	0.761721805510682	0.755694467885738	0.740878419779083	0.733495036738807	0.748102486055415	0.735298053094174	0.722422283940271	0.717418015375089	0.717276272581029	0.718903559247969	0.731432692852189	0.743870933897653	0.755967879947329	0.782259725415235	0.770696269788083	0.755397883942667	0.740149005752796	0.737187084870874	0.749943546300028	0.766356656172234	0.781264380861947	0.788879423353536	0.774337343483002	0.744797050330145	0.726781027675079	0.709656922408427	0.712464515585887	0.730202949905733	0.755972882705965	0.752023113908121	0.757170897428536	0.758347975435209	0.740538891321013	0.741742634527362	0.742233452367869	0.752068256019203	0.760446373741942	0.75988368085288	0.749979959358348	0.746584487555353	0.737242241541924	0.734019332660878	0.732915713863976	0.720112966981725	0.708028424958791	0.692569184731256	0.689166634850623	0.696164535041245	0.705014449549269	0.726895235939702	0.728065174259875	0.736365246283358	0.728362669780569	0.713399782442384	0.697998817932791	0.713117361332587	0.719136447806813	0.741937597175595	0.745722079952689	0.739819413430945	0.724794648248222	0.700131186966294	0.686227039752408	0.676297593232046	0.686664685686714	0.708828362131981	0.70930370413249	0.719936710761493	0.713452386983872	0.70791507367861	0.704668490103808	0.686165287586504	0.699224890447696	0.713935929169947	0.716544845222551	0.713017012939536	0.704522804911386	0.694694731407851	0.685728256426323	0.694854304467163	0.678142625928067	0.668102117683389	0.657607942551217	0.646544257785115	0.648860767354353	0.659111125748236	0.662652583199667	0.668036338388462	0.687120064798722	0.679307379086648	0.664248755410273	0.656914621455121	0.656362104630055	0.669097350203111	0.685537855281253	0.695802403505139	0.704676907883103	0.689761410731552	0.657457406809145	0.642361314448578	0.628288032507615	0.630553357919492	0.645759233565064	0.671479312703992	0.665208538672792	0.661877141042343	0.668109152047393	0.648699990330889	0.648120167739122	0.65062005376571	0.662211048577504
0.492953625263289	0.497534603612533	0.508457553567477	0.517742779141633	0.516152111142826	0.527257379776173	0.527629444004139	0.52462948228133	0.526584747558233	0.52211568230017	0.532686616657172	0.527870042643053	0.517306458146522	0.503583637111038	0.495820081890755	0.497217821813317	0.490294721384627	0.487371361676205	0.491023956401413	0.491592334821898	0.490771548108673	0.493578939238311	0.497857720624572	0.499673486294259	0.505070592885861	0.517987199623324	0.512990216809343	0.509288485677394	0.503655869141122	0.528601583781678	0.52855034363836	0.518349051032723	0.523735986517755	0.52708277241475	0.52580773899633	0.514692468312702	0.515781870700439	0.530860017731265	0.542972461366416	0.55035931871837	0.560938737478308	0.563092346363413	0.566845074511879	0.556512819545784	0.574375273092556	0.563571756686179	0.559400403225551	0.562700985975506	0.579807096219391	0.563825797246199	0.54285975858464	0.540245752909963	0.530878505353163	0.529607360681295	0.518949908498308	0.509655177784699	0.52019763742388	0.526172280536049	0.523730451479868	0.529993171182511	0.532977300053523	0.536792098898095	0.537024551394781	0.536381065979066	0.546907904034353	0.541058373867024	0.547434040091631	0.549393119981631	0.556160531572913	0.545777860687311	0.554793097936525	0.556249324819772	0.548073640310955	0.537673781850294	0.546952533061689	0.55648341451851	0.567705461793243	0.577335315872784	0.597485988136594	0.586202224484404	0.589226603737773	0.587538087754756	0.580983746231548	0.580729065090001	0.576603819294618	0.587673424027991	0.579865195865074	0.572008603476609	0.554497317399883	0.55238403235661	0.533723339879587	0.530371610595772	0.52582069887958	0.533619962452087	0.520574482749531	0.525831603379638	0.526264429216959	0.532773943804073	0.524754034742257	0.534139964586969	0.544801244326643	0.537337323723715	0.539535480478579	0.535290810545256	0.553556709657752	0.551796459664383	0.549754938136261	0.552311990692233	0.556421565690276	0.557683582800725	0.542019061075655	0.540001429040315	0.550293117950235	0.56259373496102	0.562098077455348	0.576486731027362	0.571748715839225	0.570151156928657	0.556668588080519	0.580255289787147	0.56209424161272	0.55295822572482	0.558196881176631	0.565163540396752	0.54798694076384	0.534186051019545	0.521696966575311	0.514889897825293	0.503377077988561	0.496534943926532	0.502830983687713	0.505548487954138	0.499805955604444	0.495768388013876	0.502420929596871	0.502031080302791	0.505792038704766	0.499058001808619	0.503194589934715	0.502136722428235	0.502782722923749	0.508059023163803	0.508319880893816	0.508509501397881	0.50812367792217	0.517568719830149	0.51981921425042	0.509642696713124	0.501384229985295	0.506480679686063	0.514965008552251	0.527845292019291	0.530834958375385	0.543144885295747	0.536942195222833	0.532931580314759	0.522167734651933	0.515969495742348	0.514743701022582	0.506206158360987	0.519668500824165	0.516784607167588	0.51044153268975	0.497806265970944	0.490860675949973	0.471993411599087	0.468240951347749	0.466453420375167	0.480444218862479	0.465706386401577	0.458080181597651	0.46395813960769	0.467233519298126	0.456072313178535	0.465185467085792	0.461911078365913	0.463233098594725	0.459428187725986	0.461680442967172	0.467927382651838	0.464861489516626	0.466759564136917	0.475024196259934	0.478004771292427
0.390090151041925	0.389700551867995	0.399675435080075	0.406777848392522	0.401221902896399	0.40934967346887	0.412100711828368	0.413091496677552	0.425912226800383	0.424743490954918	0.436502769336298	0.434711123579885	0.453359228294571	0.455516428078902	0.457602842494054	0.44681012776721	0.460509273367837	0.470549772715141	0.475285550159714	0.471061118912219	0.46378105603991	0.469691444426922	0.44757480696507	0.452687914710283	0.453812621628234	0.436849735218041	0.447425504379656	0.441950693101712	0.435965473968552	0.424847907082381	0.416091039871154	0.405084623962504	0.412987049891111	0.416712622337158	0.419052221423678	0.421161268887483	0.422281149484349	0.424442665467193	0.424502122307004	0.415826338632588	0.417580558979131	0.421218048473161	0.425759071449959	0.430977713215748	0.439029442819976	0.449707356634685	0.436566156405029	0.458976962715866	0.457120109186433	0.464059735647281	0.48106646889212	0.48542435372133	0.480112951651447	0.482005082695189	0.495755305262382	0.502017835130368	0.510180943898534	0.50781144089445	0.489928945857449	0.487670245837667	0.474608814711538	0.478672476523873	0.461398336790128	0.456050206960642	0.463780148063263	0.472937677790451	0.457659444834869	0.43998291969928	0.440768253233971	0.430846421927448	0.432222465824955	0.440399722439632	0.442483792740654	0.443198510037075	0.432614815347219	0.438578229862381	0.422643363477342	0.432731460748648	0.438846745936842	0.435033734402114	0.441161084514391	0.447309762027998	0.442568309066012	0.461917840248964	0.462459444329223	0.472976539167759	0.467765153533345	0.482947470624996	0.49018544379181	0.494026199932778	0.482388980264287	0.493120625876356	0.505745718155351	0.503398821721192	0.506598247257217	0.498278838257712	0.49661901138403	0.468869021806633	0.470150654648146	0.475934920533179	0.455292188193835	0.461241998422155	0.464755318156144	0.458479751770469	0.449565114149452	0.437140353840043	0.425064459005284	0.431695877032214	0.43435908765011	0.437142286478916	0.44153424121959	0.438989351094012	0.439796685484986	0.439876842156768	0.424240954257794	0.42460014150918	0.432262642915722	0.432788621280225	0.433212665561838	0.434750900444341	0.443571388313123	0.4349505087977	0.456930525080284	0.451460298845046	0.454406317446808	0.465699032132945	0.476432752148965	0.466813871286732	0.466659718610982	0.47483301638651	0.483206405902341	0.485770175402048	0.481778582398765	0.462401599028531	0.454055748007807	0.445438977340206	0.447270647617481	0.435301653279883	0.429330473592409	0.434250774847359	0.438676913599653	0.420612252447188	0.40501421686011	0.409497993019512	0.400754725370436	0.400769762980893	0.412780367915007	0.418196792461215	0.416016243078908	0.412791953337745	0.409559237040864	0.397999428185342	0.40082537060118	0.405776998424374	0.406999592328669	0.411755011519795	0.422205017036536	0.415834581739895	0.422772772972635	0.429991621790519	0.428180652037236	0.425626993580317	0.432060579312173	0.446818701471434	0.446676688155697	0.440790887853847	0.455375408548995	0.462631883854598	0.455640869844322	0.459232400042613	0.445032357094938	0.441649054530697	0.421722792330448	0.423197400992395	0.422244306770328	0.408190311573436	0.407719158950333	0.408942327289551	0.401083731832342	0.384523366510532	0.371515310966326	0.362218323001948	0.365361594168114	0.378118215468354
0.26513512939284	0.268247371129106	0.277096334760163	0.281035400424595	0.288796121843538	0.293440312636951	0.297426780241802	0.29865613617583	0.302765089463541	0.307292655834266	0.306237087544244	0.312653386264426	0.323751718431567	0.329143643235278	0.321327318500051	0.315126141180572	0.317656366705704	0.315517275460657	0.315070703248637	0.321339724563892	0.338070967043682	0.333718077874426	0.336670373448301	0.339067707985085	0.328317148603631	0.315217093342323	0.324511124654417	0.315909243989888	0.322038221304722	0.315028804518008	0.30707946752271	0.311006223087648	0.294400543821559	0.285341250025543	0.290919388580215	0.285517028273079	0.285234765667652	0.295853179798657	0.289284448585313	0.29847389543703	0.309843346590387	0.309993391359557	0.312929455370251	0.322121403368927	0.318629326012331	0.328233598189219	0.319823274246277	0.327428813263182	0.325331174276166	0.331202971262329	0.351212310311868	0.342948373215321	0.346674363502031	0.338160133965336	0.343516597562321	0.342556706172774	0.335994197783249	0.353922990962188	0.356540710618656	0.346195507978205	0.351753979840544	0.346704474093931	0.327614079314245	0.330705340634202	0.32833735130819	0.324555410382757	0.328166309816563	0.328546226352966	0.32306616205427	0.320402695520178	0.297941573617708	0.309674628462472	0.302593399539437	0.307294289466874	0.311339199765711	0.309426862684217	0.31132513548175	0.32133478875891	0.322873913901106	0.323636528043255	0.325747408296935	0.32997665362352	0.330186733504446	0.332767315463181	0.338185643280959	0.337452426203029	0.343045532342158	0.351880188651802	0.353924332398171	0.34994732101519	0.342492514090148	0.339994613942776	0.345437572686099	0.338857155219593	0.345963305025005	0.356208018903729	0.358139055940103	0.355911191952856	0.356389205600215	0.340634309945716	0.32643989191488	0.334164189319394	0.32039036097311	0.326875470554465	0.320165844551361	0.318889482296293	0.324073885235142	0.302872990205679	0.30097163990721	0.309428984604909	0.302556441320863	0.305183069085934	0.313857431214232	0.303195166589357	0.311803581004396	0.319366528916541	0.321689877389145	0.314846491648193	0.320582371772701	0.318658280428707	0.32903815453359	0.315351635734554	0.32667408730146	0.321190376920655	0.329756677031087	0.345669016147777	0.336648717924117	0.335223104951431	0.32966289405735	0.335010346016915	0.331792108424651	0.326038397521422	0.341404931387409	0.342698628814409	0.334887578743403	0.336422006755984	0.327463078783027	0.305229332226632	0.308650748547985	0.302979196723086	0.305548735199956	0.304761394005185	0.301992273291706	0.307202199813896	0.300780999997398	0.280462704006204	0.284868045585556	0.280925168648774	0.282957440047861	0.288524178864161	0.286887951074187	0.292126384947022	0.298166497552933	0.295014471919842	0.299351915810812	0.300985908803011	0.300296340138077	0.301961117001514	0.303281474669113	0.29982979966426	0.303875492942432	0.305869275775159	0.322820106025446	0.322846999540189	0.316960040193216	0.310109307913851	0.307586228647238	0.310842777998636	0.30245428459123	0.310226281371974	0.313726730801818	0.315749803002968	0.31313323975526	0.308597329797996	0.292349696950941	0.281735497059345	0.286715919719852	0.277478032056966	0.279617482302687	0.27008827802754	0.270567189359539	0.277296639323896	0.258131686273527	0.263716687840164
0.247331852860756	0.251585564777021	0.253444009203815	0.241936571509556	0.231540873721519	0.226356243904567	0.221630886236966	0.215317912478217	0.224278729494289	0.226756623517214	0.226683598339417	0.230172169852526	0.231993376393783	0.234975376142107	0.237296825807483	0.240108584650936	0.248803858998572	0.250690769935686	0.251584325824451	0.252054651258869	0.255372679472004	0.250314800856298	0.246181369182359	0.250210266833883	0.253815201104168	0.247160709770365	0.242231290818535	0.242896674430732	0.242251442016301	0.251154471593754	0.25562067328145	0.258227282566788	0.266826113825865	0.261605247486137	0.269473596627844	0.263133721814623	0.259947184046327	0.259238718159013	0.257651081439172	0.269728398351608	0.263827163866402	0.256354736142161	0.246307353016032	0.242725838485955	0.236896684881631	0.237455844031013	0.244617194448197	0.242786750557534	0.245284448755276	0.255498289794425	0.246736193445848	0.253008938385946	0.251644517868197	0.258082790659705	0.266940485787848	0.263330012718834	0.269473831327526	0.267229825723117	0.26819217588381	0.258454143669831	0.264123906716308	0.262586047144202	0.261191468491558	0.263066753853908	0.254671478834073	0.258327801470139	0.254984446693825	0.267097593890662	0.27169263105717	0.279497422892064	0.275334892208623	0.27842603524431	0.284750661483818	0.27831208742158	0.267255977712616	0.278819383919053	0.272556039260022	0.278988706855751	0.273787829790533	0.260021923417233	0.259792732046649	0.259218261397507	0.24679165547867	0.249337363339904	0.250661353948644	0.257558320084855	0.259050516179748	0.26468515106049	0.264313716531704	0.261448461668087	0.267289235363864	0.270727560380088	0.275955323634246	0.27338300697898	0.270853557479321	0.271729904441747	0.266004399942568	0.261738456684921	0.266165687089129	0.261062460682575	0.261364606480414	0.258610601879629	0.25649499373262	0.255089420929364	0.266187058611917	0.26989353910214	0.27063308844781	0.281004733349782	0.277581032499167	0.287372053088392	0.278363712574564	0.27656929012146	0.27467099054202	0.272574282399181	0.277978870774046	0.271601778099193	0.269920839434753	0.255335042866062	0.253634642310854	0.24963617293433	0.246895741741819	0.245990400158298	0.246841180476255	0.251118677426861	0.259411525806088	0.250493342780956	0.258560509643225	0.255691541316667	0.262749150195804	0.263266533773096	0.25945601248453	0.261774708284491	0.260424182853	0.262266630629149	0.251922084447843	0.253732936692303	0.256937090927694	0.244654798286711	0.250260707908	0.246067946751801	0.2448197592529	0.245749365801201	0.255161948450349	0.259415793517705	0.263021072301202	0.263655757964996	0.264858404809657	0.270911283502497	0.264996297132557	0.258885220124201	0.265591350668562	0.259299079991216	0.264978493461641	0.260718640341552	0.244413787034958	0.246237957345572	0.24114302679187	0.235556690885562	0.236778345797759	0.235400449290487	0.238885457547451	0.236573860179067	0.243860438283429	0.243951298126371	0.238513205210579	0.248425972141003	0.248316467144354	0.253640141324696	0.242762384970991	0.242039377960954	0.241205635071674	0.237102799867368	0.232212124832713	0.234251057266421	0.2303662863181	0.231366030100513	0.227027070487207	0.224727229141336	0.22104190590219	0.231556809227399	0.235442015345848	0.235286535232614	0.245096631987624	0.239196166876755
0.189600678759011	0.194037768494798	0.192747158001689	0.196938229246972	0.191152608353432	0.193720588303127	0.190911736502311	0.192908004676475	0.203409512570786	0.212771621163147	0.208987338661885	0.208389051149189	0.208342260230915	0.210699060063695	0.205924970281754	0.210978206784539	0.21097130665814	0.215866893092138	0.224449849404896	0.221007237045875	0.217710951577241	0.202582759273564	0.206206267522598	0.209277721288156	0.206006261351226	0.206057561655588	0.201827962891062	0.205006238999037	0.197088866766361	0.204689279907977	0.19792337519523	0.199944714781177	0.202591711563325	0.196948720765434	0.200233944643664	0.203812856930286	0.20763913577902	0.203252212169405	0.204262691306656	0.209110448633542	0.204217078109915	0.208886301501711	0.199580314637426	0.202169232170247	0.196843249958139	0.203686742357738	0.225892920607641	0.215614302458855	0.213428651879698	0.212607263091286	0.219957351769081	0.216529591073888	0.219212979530242	0.224857168153842	0.22450202227975	0.231490616111718	0.236973401009571	0.231905557321194	0.230103412323367	0.218449896957672	0.222463913771768	0.222989412616128	0.221709657879033	0.221505886737807	0.220939657027609	0.220487653960521	0.215280050999261	0.220257280309885	0.208281441998459	0.216404762609781	0.217789194317068	0.206865423363335	0.213801084920716	0.210300959551961	0.216263490769718	0.212255264681365	0.214745467512127	0.216431336640418	0.219160035117668	0.212213638961757	0.219202129326135	0.211884012312959	0.215443716470624	0.225065184409101	0.23482287874147	0.22870192177066	0.227402355573622	0.231324265239884	0.231476956818501	0.227948857493868	0.229424272449525	0.22980044785295	0.232537316331484	0.241353579642529	0.24067467107235	0.231615666993877	0.219302990280948	0.222263519158221	0.228726859222929	0.220657578059738	0.221739448951785	0.218830671184483	0.221235859778395	0.215803594326512	0.221477268805703	0.211887810177364	0.214342031410112	0.211057390203425	0.207849848200746	0.211013017053645	0.214487457599082	0.21438965347374	0.211884307762495	0.212383882741991	0.213466682672903	0.211986321452859	0.217213083005699	0.206731638200273	0.212280200013373	0.207435148213086	0.212680762216525	0.231242832141584	0.224267677446013	0.217449694636738	0.219586373338502	0.22395534849799	0.220002598367393	0.223586756488651	0.222936599604185	0.22424516711478	0.228032872641614	0.233919528511264	0.228476972448116	0.219289585659186	0.208596766801416	0.209528964915667	0.212906363238643	0.207902271338023	0.20635875854467	0.205160512825245	0.202336343274812	0.200165675328537	0.200944416228424	0.190542608359976	0.195377426437659	0.198449644594764	0.194850185895553	0.197738625364466	0.194259239533832	0.200596036944855	0.195585554221693	0.201705982109265	0.198741015961832	0.202809136154911	0.197976110408172	0.204840741918475	0.197645644047405	0.201427625554673	0.211169868183408	0.216022337232332	0.210862052297048	0.210218582308351	0.216293831858307	0.213055170186947	0.212461017102734	0.214685084357222	0.213081098090196	0.214217585362635	0.221100445932388	0.219643836897982	0.212245370842088	0.197455404724057	0.19990401617717	0.208503864083824	0.200433247789914	0.198069929367386	0.196285848079447	0.196461916290103	0.190092718620077	0.193322795053527	0.184652055962916	0.186837969209424	0.186042445261993	0.186683421975073
0.171661759510407	0.167547690608967	0.169129617472693	0.165134324012895	0.157311072595034	0.163104186731058	0.159795312109697	0.151193101367643	0.147341256819782	0.144315750270171	0.135455641804291	0.134790493028128	0.139873167596082	0.143661829438144	0.148662433571554	0.142630477697023	0.14243923458456	0.139992759038954	0.14115431775673	0.148575349488926	0.149600241876668	0.153012579086086	0.161041807662101	0.159651541263232	0.155233465206213	0.159560581852242	0.1546045149135	0.157871047742245	0.170904946240443	0.172671585619356	0.173003892562339	0.169256353063264	0.174099325096122	0.171206480215193	0.175661094786342	0.177993847350274	0.179636258283262	0.179921938543546	0.176948013217136	0.174808725142621	0.173106955287677	0.168943677200805	0.169335723615202	0.168981417084302	0.162688896670487	0.157211185803683	0.157715954305923	0.147410771040109	0.144533749489525	0.146068124629988	0.151038871164841	0.158412896412883	0.152556583028326	0.145394941682479	0.14989078734492	0.147197076050309	0.153692458991671	0.157617706573258	0.162490355313807	0.167620018138912	0.16951803747119	0.169387068689769	0.163641429148499	0.16326070166011	0.161796933760621	0.170254821033448	0.17626798345019	0.178306894179482	0.175724004582621	0.174463502051405	0.179370568512271	0.173999729221193	0.179478595461371	0.179946327415698	0.185299525067055	0.177895188907123	0.176283700014452	0.178189907472132	0.173847170589051	0.167543229588781	0.170378399983001	0.170342754103493	0.160304321242515	0.16081367316261	0.159780313908724	0.150369923047079	0.152657482208431	0.153333438798222	0.160001400186526	0.163151079032425	0.156380755934071	0.155605676166073	0.152701085632061	0.153794610430177	0.161730953662782	0.161481161211405	0.164894413106684	0.171381117420769	0.168251062942195	0.162135461420143	0.162877143104392	0.160456266137949	0.167810085422465	0.176867273521745	0.17717161859204	0.17772193009631	0.174845078905524	0.180239342229472	0.174910717811007	0.171980288723228	0.179614668851491	0.180316732830362	0.182214294301711	0.177647410374308	0.176435182405454	0.174942809651894	0.170834645556359	0.170049540722082	0.170821676123032	0.163969683458831	0.158801596036907	0.158613035102296	0.148438529997733	0.146783807894305	0.146308661297542	0.152054272412649	0.155174309951711	0.148292959781947	0.139378835541305	0.142862813654269	0.140338874944078	0.142939430688899	0.150097332008004	0.149924375209452	0.156158306990799	0.155559250167998	0.15360363328536	0.151178300111661	0.151004995420839	0.151853649466391	0.161327345866723	0.169249343088607	0.168760581415153	0.168222508493972	0.166759201913362	0.171079942399087	0.169161163535989	0.171046382595381	0.175842113854813	0.178488742063757	0.172057280011112	0.167772887206292	0.162113593742231	0.161357918842328	0.154186348474618	0.154660906029853	0.1568962577713	0.14477886048524	0.146900797820856	0.143375147594668	0.134172159971109	0.137786137832422	0.136357509836088	0.140710605194115	0.142517055261861	0.131056614622859	0.131954141199095	0.131173730025043	0.132138972990421	0.134956024143361	0.135592298987364	0.136038956494798	0.140166614816235	0.140194394847175	0.135532494972302	0.135075360841383	0.133866676641098	0.143702250418031	0.154080943521655	0.156332338517324	0.155058416294777	0.152452867829971	0.153317679510251	0.152677763741534
0.106611062023595	0.109166107621564	0.111882724053498	0.114356734111437	0.115773267019169	0.120151189782414	0.118197111322919	0.110630548878571	0.108774070475876	0.115826195696992	0.109760725994453	0.113542611162344	0.117701105789245	0.10986698522183	0.111739778553575	0.114539536811146	0.111953453034262	0.112459617974447	0.116256901347649	0.121153185707718	0.124351539636636	0.125471619897641	0.128355889464456	0.131722160272779	0.130261183500332	0.13020363137336	0.130143627597855	0.126811272311185	0.12084416861644	0.123607038675192	0.11385563373724	0.113422439186305	0.11707097735298	0.118971888098292	0.113551312557151	0.111598514042973	0.111686992981462	0.109556553856824	0.114486007985469	0.115471800402159	0.117134216564627	0.121273809139869	0.123217848996047	0.128749565530481	0.120711827298067	0.113640832366508	0.117766884066233	0.117955834000814	0.119448430720458	0.119649975831637	0.118844856999661	0.119511934528817	0.119237948031654	0.121974030182445	0.120379556566892	0.123390058393719	0.124243081931297	0.132423548550111	0.133177669895985	0.130128213004294	0.139538218499648	0.135007211452336	0.13440664357069	0.136395470804532	0.135681653296878	0.133630042803242	0.130779286626839	0.128720957793528	0.116184824651827	0.12265305760562	0.12464363256298	0.118519631042446	0.118647526170711	0.113995048758482	0.114296135392091	0.116194747190697	0.116378444465239	0.118752410670554	0.121274255664741	0.120544475703576	0.131756558349882	0.129519613369839	0.120730470466946	0.119533489193202	0.127932174417436	0.12047496743626	0.125898828963942	0.129891432037257	0.122171258973202	0.123054743525973	0.12528836521924	0.122618979485501	0.122904264130479	0.128839579944375	0.131382138965305	0.134855785565382	0.13543147486557	0.137419248874026	0.138767048919192	0.135960631273308	0.137864078885708	0.136473005010701	0.134365862188688	0.129061424208162	0.130174901861819	0.119406063096782	0.119795843482249	0.124009720952523	0.123190285486848	0.118477484619787	0.115773624950806	0.116110158104635	0.117073752527442	0.11898328796308	0.117162525744873	0.118364683144236	0.121527694215082	0.124210785933077	0.129292443771512	0.119838592756538	0.115047882102401	0.119348322190742	0.118689006924122	0.118609587449699	0.119870747610657	0.118657332799087	0.11827967011025	0.117802394303227	0.121118685405074	0.122348260888488	0.120072266434507	0.124397257706368	0.129625177179082	0.126453080396617	0.126081890575109	0.131690261328947	0.129307827318589	0.1229836992941	0.12667564616026	0.124768172341137	0.121546731061536	0.119531822080406	0.116639741774547	0.106744077561063	0.113782894143288	0.117683892380722	0.111631496333749	0.108253523432269	0.105791889612979	0.107814620461545	0.111529050892998	0.112467846278286	0.113052501655355	0.113922473999766	0.114122260111996	0.12413122172245	0.120967469038552	0.108401650702292	0.111532597032342	0.118069475481396	0.113975858156064	0.116089138334314	0.117165954362198	0.112171981060382	0.115130067306984	0.113332067969118	0.112550867316824	0.1141789018149	0.11592817270249	0.119797645625719	0.119168151642282	0.117234463040208	0.120878644499327	0.122185191910604	0.118597945622375	0.119447241209357	0.117102573604311	0.116748080925441	0.112390620149091	0.107045827379488	0.0997808291240829	0.104734715403451	0.105282341860192	0.10706085296019
0.0698223859134779	0.0757900102470255	0.0750732293354443	0.0732341070574904	0.0721615235059709	0.0705165207061962	0.0751804735100429	0.0741011615117069	0.0710556093946223	0.0702412310014696	0.0651643891184433	0.0693368593768535	0.0749091259337441	0.0746999558783069	0.0747542457786587	0.0878720140567317	0.0904765817823921	0.0914883439736545	0.0913611730127723	0.0902465314016958	0.0885286244690699	0.0894223592880028	0.0883892068208449	0.0943704236023218	0.0894165393978261	0.0862830939313794	0.0778793251314834	0.0736057990642774	0.0687308868526253	0.0683568963222699	0.0714386022182126	0.0703445655962238	0.0730359981462235	0.0774991812183506	0.0786030088911533	0.08001757391548	0.0750465228373451	0.0725369000314011	0.0785189595304282	0.0849399165453312	0.079170615055167	0.0784993045758338	0.0747479413840744	0.0785598637863067	0.0783974193114915	0.0777874563059419	0.072853876602285	0.0701231082519655	0.0685954981071116	0.0771253499475377	0.0799707865493975	0.0824069310157458	0.0867212487817367	0.0954781755168155	0.0973598035538938	0.0966154100983664	0.0956476456391708	0.0960554429629839	0.0919107847382592	0.092271697853027	0.0981788135551414	0.0993883290166556	0.096562406886235	0.0897260641349168	0.0858500745682835	0.0801924136302501	0.0754687218827377	0.0794484820204221	0.0772169690035753	0.0789250655553202	0.0835652065353749	0.0861933576703615	0.0885105118546958	0.0846730937825486	0.0814603354738307	0.0826095079359402	0.0884172320960754	0.0886959725269101	0.085851706164702	0.0846392108805561	0.0797831412418502	0.0855233900578357	0.0785891408902252	0.0776893274724391	0.0764368474355753	0.0720273472819599	0.0758762468295354	0.0800469939801144	0.0823889780911959	0.0806343624875552	0.0911313629819441	0.0959932540865762	0.0974694913108848	0.0960238905736551	0.0955638847990989	0.0945561591750469	0.0960193626855622	0.0940008547294234	0.100692107196481	0.0958524870284123	0.0930596403069618	0.0847290242290551	0.080455498161849	0.0751019772475584	0.0737816783962993	0.0792987364597125	0.0757452497073232	0.0810917553880376	0.085290319325475	0.0887175186401627	0.0867952480157863	0.0835519264805331	0.0807831815944267	0.086666060750053	0.0892962557749105	0.0849902708267249	0.0832342444626991	0.0791580682140807	0.0794343328561001	0.0792393296605228	0.0740910281688058	0.0713469026812365	0.0674559575503293	0.0666131950703351	0.0738327384394931	0.0751884371861226	0.0784356479242102	0.0805738444817963	0.0868913651105885	0.0893460483950694	0.0909723174791482	0.0888546411842447	0.0907436469398501	0.0897880645192245	0.0864854302517949	0.0926141775320913	0.0932514714550679	0.0904628522922884	0.082714430751303	0.0804096205738638	0.0738820654591047	0.0716020323743714	0.0715961242378061	0.0700795342453373	0.0708236012539354	0.0753213512225854	0.0766931026085272	0.0813957193833863	0.0763761775202358	0.0744461723819107	0.0768245834696972	0.0821404721533054	0.0849106023188612	0.0813289783939721	0.080627512268707	0.0767104565325723	0.0808988438428397	0.0741641347471897	0.0716522355103595	0.0686932303430779	0.063679897423402	0.0668865898917419	0.0712226020666325	0.0729164873692426	0.0746231690377283	0.0829449710903142	0.0866304626663806	0.0877697551042767	0.0857590929585673	0.0836857301525443	0.0826939098449676	0.0839113819554475	0.0837624661161986	0.0888131108469524	0.08443070276322	0.0802696930955931	0.0734707148974587	0.0689650457082176	0.0634426878758148	0.062269296411917	0.0643947432971419	0.0629605132621402	0.0689633265365776	0.072682977530513
0.0580361664688212	0.0630382355761461	0.0620552591809612	0.0648062836757581	0.0673544228614812	0.0697174247755417	0.0693182322923091	0.0724888678116051	0.0737149340945551	0.0717517243102747	0.073691980006035	0.0725058117923995	0.0734877606836441	0.0733204272225355	0.0701462612040559	0.0679916687070186	0.0652910181708039	0.0645760803190026	0.0643288410682488	0.0648292792045774	0.0645057239096268	0.0673865873196304	0.0640735664782942	0.0644733528435804	0.0622085551136359	0.0638141171069392	0.0644634127771766	0.0655444033956843	0.0676029696841539	0.0638120963055591	0.061079463310666	0.0611534134707241	0.060341219888415	0.061279145703339	0.0622277938716039	0.062306732936802	0.0662780224549229	0.0609905070312774	0.0650422835568083	0.0651430175332808	0.0656340899125393	0.0708175532306412	0.0761664590056257	0.07989896659479	0.0809220164976966	0.0838205249001911	0.0811762760596429	0.0812064216127509	0.082037097762282	0.0857534852926378	0.0864903001517501	0.0822167753515444	0.0780670854579328	0.0738070418208894	0.0754600116646533	0.0743701009186221	0.0729937645242041	0.0703168458916852	0.0704753301000583	0.0697945288418756	0.0709962165939826	0.0669954964210117	0.0687752013953232	0.0664717279272685	0.0697679952205286	0.0705079506487201	0.0687099855316926	0.0665373879383141	0.0653899630053336	0.0646337821479518	0.0644756001240638	0.0671007056737474	0.0684852912310512	0.0661375962886783	0.0664021699258456	0.0627979984620767	0.0681448553601498	0.0709566031743528	0.0748031242619523	0.0762159207288195	0.080530224606602	0.0820216314156668	0.0847770400887282	0.0837922809246871	0.0831670769662909	0.0820151409094311	0.0832815924548623	0.086643254113799	0.0843286057871192	0.082931761915714	0.0786147183606287	0.0751385953322882	0.0746269371273652	0.0722529066234395	0.0710489147132944	0.0680694088136759	0.0698542723762383	0.0677038286756697	0.0694733103706754	0.0655201409189039	0.0685409852007279	0.0664526222373937	0.0699875057417066	0.0703325189781533	0.0675239335338811	0.0649622962068327	0.0645812250273523	0.0631860432758786	0.0646129830876098	0.0673411800389304	0.0690110735369024	0.0692468847555048	0.0642822600561856	0.067467092303148	0.066208855138696	0.0677297169652554	0.0741267497138012	0.077163188966669	0.0798722721505341	0.0811011798003607	0.0852577832826368	0.0803704180285688	0.0811187151730976	0.0813620521433701	0.082999606069097	0.0847134557161492	0.0817519825979908	0.0772077789697308	0.0721547872221854	0.071407630344518	0.0696549637937838	0.0684130870261783	0.0681358329634147	0.0669553006198488	0.065280956723842	0.0664396201744465	0.0652476402224082	0.065168543152847	0.0640019985824285	0.0660757910479019	0.0677927812640334	0.064871871543828	0.062928379066267	0.0625933263863277	0.0632341627357659	0.0612469659231822	0.0642389101690979	0.0662925288061768	0.0645229995040654	0.0636077154081441	0.05878219207038	0.0625285763237361	0.0621733960517202	0.0658580877299389	0.0680517128391504	0.0738204552074126	0.0732381554265908	0.0763988269066021	0.0739871703370625	0.0745372067274151	0.0726047768985649	0.0727677808617289	0.077103769621386	0.0738947340061109	0.0741402461757882	0.0711590076798163	0.0700218590286202	0.0673406294937117	0.0659677118551185	0.0637230860123698	0.0594854850329699	0.0603266796331295	0.0596692194453162	0.0598945303552398	0.0575295705694491	0.0601441384985737	0.0592008951226305	0.0604908876292654	0.0605914342443463	0.058600575051985	0.0566596247428686	0.0561642895269611	0.0544174000343635	0.0564995814728025
0.0511901788557547	0.0457577073061465	0.0467893227494272	0.0436972525966681	0.0403449488629368	0.0400699819007188	0.0403127981427624	0.0401947873318554	0.0426898164501484	0.0461585482722964	0.0467294234295221	0.046825898829196	0.0494813401980935	0.0507139834400753	0.0498063846859999	0.0505709522331579	0.0539525013816914	0.0565437634292274	0.0560565352753492	0.0550642916718819	0.0549111922013891	0.0520891442988979	0.0525181659850659	0.0520655474787381	0.0474008518641651	0.0481060852510325	0.0525245500398253	0.0534003791795146	0.054009991792129	0.0555317508777493	0.0543919501000095	0.057945421691322	0.0554783344898656	0.0552218587006181	0.0528342654614799	0.0541663272531266	0.0551826285331689	0.0543618214059884	0.0520290294189807	0.0495394279522194	0.0484400554870488	0.0455663666731317	0.0418634537355197	0.0412829729938642	0.0425347063941047	0.043318910839312	0.048063615679428	0.0500184354670273	0.049157787201967	0.0514345218864089	0.0531228492651498	0.0554341812975538	0.0522565234680509	0.0554061986620562	0.058413090151785	0.0584463643933353	0.0563632413473865	0.0565503269074828	0.0559641589963204	0.0552477704663762	0.0531078945172216	0.0521513182050323	0.0489351904649075	0.0516846136919311	0.0541099074685217	0.0556568409804562	0.0545375169079811	0.0558293315843382	0.0586766551059783	0.0588073383163809	0.0589149646770963	0.0569311287176656	0.054137186020012	0.0549883817943291	0.0567135869197574	0.0555531401394124	0.0518892438975136	0.0503695313864056	0.0469656990458063	0.043053499448683	0.0431881195406264	0.0425793141835619	0.0442669667572522	0.0441896737866003	0.0480339403029421	0.0494381133255317	0.0500225242934054	0.0527739466397876	0.0539742277982338	0.0524216230899425	0.0523793343733447	0.056567739785634	0.0583781731908257	0.0594526023216361	0.0573039112474249	0.0558818464671108	0.053099598366919	0.0538071801389523	0.0530050918394487	0.0496659078342816	0.0497083854164461	0.0528491147830561	0.0550350414284637	0.0556696244224583	0.056879354347312	0.0555167769017832	0.0588500818899929	0.0579554935832861	0.0569974280528242	0.0547598113610024	0.0566731617230329	0.0559639713452382	0.0562882200349383	0.0517941246886512	0.0512401932656255	0.0489547198279445	0.0458856384881303	0.0427833904065815	0.0396424663964753	0.0428132664799701	0.0438455730497402	0.0465865138168905	0.0487163458221741	0.0488161421550485	0.0509903904846429	0.0501518014342423	0.0511229590125938	0.0503392840342812	0.0540145848333067	0.0547225946100736	0.0542168390711504	0.0531160039595242	0.0515674446074409	0.0527724927950975	0.0498768784798386	0.0462985231121119	0.0461215971789617	0.0435393152853073	0.0474799286258394	0.049604720844149	0.0504542307445593	0.0497080660382745	0.0532507234438364	0.0545340222294145	0.0534617050330833	0.0540044425888609	0.0529619225199986	0.0520113319958571	0.0528043780784202	0.0538668273991454	0.0534947459764824	0.0501229759447321	0.0479398956352927	0.0449624937110486	0.0412557077436416	0.0426958625183767	0.0401459273887891	0.0418167868883726	0.0416147243468299	0.0454589908631717	0.0465614585426901	0.047447574853635	0.0491724980122169	0.0493658930933218	0.0468531541545605	0.0481923589363702	0.050572952727076	0.0510247208893555	0.0497982179113446	0.0480965013712554	0.046692857603708	0.0439106095035162	0.043352055040306	0.0418385256069366	0.0399094865610425	0.0412833463686443	0.0451061640495839	0.0466507141097951	0.0456410530471734	0.0478027267002232	0.0495172281157253	0.051571931546268	0.0505628730852044	0.0505130262121271
0.0346626639095389	0.0311217903316596	0.0343145590359075	0.0302379381746796	0.0329438156818716	0.0319096747857656	0.0358619720275987	0.0375071263585713	0.0389229257138985	0.0369346828177816	0.0388359258020533	0.0418524027172172	0.0412605328200331	0.0424775573863853	0.0428292671821011	0.0419677716375876	0.0412153700118504	0.039308806584844	0.0386957200882938	0.0349025737670142	0.0363128722631898	0.0364517509973776	0.0364644393934622	0.0357878669275078	0.0357023232084568	0.037566985589977	0.0364919593884897	0.0365368795041418	0.0394410979652423	0.0395016251130637	0.0417629135029827	0.041314673821175	0.0403783907561866	0.0395895071692061	0.040832376864863	0.0374092804650741	0.0374544009913245	0.0359034585343544	0.0343937011065755	0.0337866882729513	0.0348780961174589	0.0371298775674274	0.0354491784801467	0.0393381419820342	0.0407918425231899	0.0420491742322043	0.0416383157424613	0.0415778775256084	0.0456920433389747	0.0448932110120815	0.0452372097527764	0.0477608726492514	0.0450181137604922	0.0468908676595966	0.0424136559916254	0.0427490053831917	0.0375205040516405	0.037608336043806	0.0366096179669068	0.0368201853388112	0.0388105062198511	0.0359977934878162	0.0377278179110343	0.0387053984373208	0.039688526034204	0.0395113156132124	0.0400091305262878	0.0425455623799546	0.0437159411597551	0.0424424166280751	0.0416123793837784	0.0412333115214463	0.0411504882664111	0.0370119376839026	0.0381036880310666	0.0373320915033694	0.0337615425490042	0.0364657810235591	0.0323891601623312	0.036185157664549	0.0345099227699346	0.0400646551843975	0.04078885759548	0.0419557722414277	0.0411871828387261	0.0430236527588481	0.0451498683794361	0.04606894679476	0.0466349764605765	0.0465395207752561	0.0457257896808473	0.0435037759866512	0.0419767046330778	0.0377506478247237	0.03709923357642	0.0365324870545543	0.0373887127417881	0.0382885274781934	0.0368486830624634	0.0365557650421925	0.0376040498471269	0.0380302488870851	0.040166289654565	0.0405372553981026	0.0420250713520648	0.0437159411597551	0.0426088814344991	0.0417367590164385	0.0415879387330694	0.042230143572663	0.0381656705876778	0.0390898498829481	0.0361490809076054	0.0337691933739037	0.0333849572080685	0.0334252974967051	0.0346226663157445	0.0336133058156512	0.0354519851898851	0.0384020715497912	0.0382111704098533	0.0382114859485915	0.0372828796812165	0.0416616646292724	0.0408628323023792	0.0430476935644139	0.044620755234125	0.0420758368185455	0.0432063592836529	0.0387291476156818	0.0384401149369575	0.0352623637322736	0.0342442578077115	0.033826828301196	0.0333525480082408	0.0370149674017151	0.0340487552946531	0.0340473498487631	0.0360963640314207	0.0350574567451689	0.0358308475509411	0.0368730534248339	0.0394094852785006	0.0410896995054765	0.039616634901836	0.0398809495146702	0.0395411156125703	0.0378399008995142	0.0349009603671882	0.0359927107143523	0.0354415957432553	0.0331124208247542	0.0336082873752768	0.0308547322854595	0.0338441279994684	0.0313880644625097	0.0372622674866209	0.036668291949902	0.0367873762587502	0.0364891637125426	0.0384118188311787	0.0389332501158452	0.0407646816859017	0.0419934671564212	0.0418980114711008	0.041084280376692	0.0388447056837599	0.0373176343301864	0.0343431316897939	0.0334473985039122	0.032792696460632	0.0336186142652622	0.0363394892850304	0.0348996448693004	0.0349079891177387	0.0317230284807963	0.0326526632664821	0.0340810281136069	0.0357040607383169	0.0375840757214721	0.0386369413255212	0.0362908577975515	0.0377479634932721	0.0361082170592639
0.0229551821909613	0.0220008320117212	0.0229051204225372	0.0223320052917271	0.0243458701078884	0.025216887018572	0.0283944640247377	0.0294395004499893	0.0266832518370031	0.0250359223489915	0.0244492672221775	0.0239978306182144	0.0229005759730951	0.0242078786143891	0.0269877252850745	0.0271279753218377	0.0295215271036162	0.0303741480740754	0.0313682424769463	0.027901664825918	0.030757645232662	0.0301277484482096	0.0304574201091039	0.0289395168725325	0.0309792968681193	0.0331450874354899	0.0318688687294143	0.0297454823369517	0.0288035074233005	0.0260261218937661	0.0222014012795087	0.0221581597527115	0.0216396581617703	0.0225401608335505	0.0249975508922957	0.0261084699863868	0.0270437104124688	0.0256193901871162	0.0253017681911676	0.024073774067787	0.0235045093592664	0.0246544042228104	0.0287595544924668	0.0292943359453268	0.0324035949279776	0.0314216353906316	0.0286340228318944	0.0291320850972773	0.0272037320719243	0.0270964563582888	0.0239659173373091	0.0261964862226249	0.0285507722735011	0.0309706444977519	0.0314953298393541	0.0336395838934828	0.0315888486278004	0.0311224018083027	0.0327163186119183	0.0312648814559883	0.0307406174887112	0.0322050819922183	0.0349189486265601	0.034376433462251	0.033589093060851	0.0334912777705271	0.0299857888529098	0.0254422616413214	0.0246287724142526	0.0240881789631545	0.0226716092955276	0.0261298303678504	0.0261923577361491	0.0287483527034976	0.0280014140899981	0.0271178410704524	0.0261634908912123	0.0259325912327987	0.0272503047928418	0.0298365654254728	0.0304636041795699	0.0339420820511787	0.0343243626717273	0.032130651384919	0.02970514034468	0.0294624743785308	0.0293983137316031	0.0277003942304206	0.0276833919619486	0.0296987264867293	0.0303658064855738	0.0337172441402328	0.0326726034235528	0.0337609337104906	0.0311922681789377	0.0334475837296185	0.0334183518012293	0.0322163855823513	0.0315887436403558	0.0325732360380898	0.0357258048903159	0.0344495861842403	0.032870590752595	0.03174244659312	0.0269409845752292	0.0241696917670034	0.0234267968259368	0.0234888711647291	0.0239884471693967	0.0273028580393877	0.0290986247983386	0.0280635050386379	0.0253359368731266	0.0258954543059077	0.0246674601825271	0.0247830431388663	0.026104588308452	0.0304611016831653	0.03129862514786	0.0325198568224548	0.0310804460833377	0.0281289303030439	0.0291026579778237	0.0268625427646304	0.0274865321686952	0.0259673957015422	0.0276354272606801	0.0299897133115563	0.0318178481357403	0.0321786302557858	0.0336152083895595	0.0320540474884792	0.0318536669260029	0.0328850464034407	0.0319961465736886	0.0311278934457466	0.0322735913052156	0.0357258048903159	0.034376433462251	0.033589093060851	0.0334912777705271	0.0294589588908285	0.0248215746233893	0.023108238969483	0.0237327234971342	0.0223161538295073	0.0248641607500907	0.0261598021036528	0.0272288913316775	0.0264541610024264	0.0245495144709834	0.0235951642917432	0.0223578026754415	0.0229405651811255	0.0260984919085779	0.02743320658303	0.0312191752193906	0.0302310241148812	0.0287000686327759	0.0267072983806365	0.0264004717675596	0.0264004717675596	0.0264826826117263	0.0264656803432543	0.0279802125273652	0.0282590361798613	0.0313107212391004	0.0306093041975036	0.031129660920695	0.0293602407755636	0.0308878582440206	0.0308586263156314	0.0293448979089131	0.0290290181547579	0.0306548871376883	0.0332242290964722	0.0318898606986424	0.0308628832497991	0.0294986348352938	0.0249332770724333	0.0213166924379472	0.0197995606230219	0.0208248073304698	0.0228128878978368
0.0228522378004122	0.0221734287143405	0.0235793974444237	0.0253220965502019	0.0261583437789699	0.0261169270928421	0.0250387999886128	0.0249466557543622	0.0277976502294003	0.0299947843367082	0.0273351506583949	0.028126779191199	0.0265298904396242	0.0262368417059	0.0268630959641449	0.0265640018519914	0.0271562729968413	0.0268492988993381	0.025009661528235	0.0273843608772339	0.0251273864789872	0.0234320289946218	0.022896824216306	0.0217986638347342	0.0204402453639468	0.0242037157029049	0.0239053602761679	0.023697946526086	0.0196205631438383	0.0201805941179413	0.0205063931464544	0.0220808720953432	0.0209902488284598	0.0213419565695837	0.0209017295820877	0.0234664773682971	0.0238030647495651	0.0247382358315613	0.0238296900334428	0.0233865603996956	0.0261692687731406	0.0270043187710497	0.0270055160019085	0.0282244663550796	0.0260507589889351	0.0287333860255607	0.0307764577827789	0.031164800026364	0.030196892900854	0.030457996194187	0.0273314028877566	0.0288711047267432	0.027009793942039	0.0300072340232114	0.0279482000156374	0.0282845046911842	0.0286370778970514	0.0288600687769021	0.0262544594005598	0.0227057763288931	0.0233485099717273	0.0217104586104797	0.0223721762800584	0.0235737708119011	0.0234908646659284	0.0217385155223372	0.0195799292618781	0.0205484619332253	0.0223762957166776	0.0220393778912015	0.0216875601468046	0.0214240286827482	0.0227604769842632	0.0246736241338173	0.0268820353989157	0.0257547492966761	0.0244552531926723	0.0265239777274585	0.0276039210285338	0.0291029240620047	0.0291600722213745	0.0262265581087304	0.0276040259429385	0.030666270078783	0.0340926428117678	0.0319598390955358	0.0328943012830588	0.0305897366111289	0.0302966878774047	0.0318409349278478	0.0312792701665946	0.0311159006898208	0.0308089265923177	0.0288301811924971	0.0298972219370704	0.0275664126448417	0.0257160793949161	0.0238332711470376	0.0228710366080875	0.0215653200163025	0.0241455660111508	0.0244678976023457	0.023697946526086	0.0196205631438383	0.0210708554125172	0.0218539966160171	0.0232880188608635	0.0216875601468046	0.0219865660089261	0.0225560418286442	0.0235989464210058	0.0250102115150854	0.025512641808982	0.0246040960108634	0.0234982105724133	0.0269436747505612	0.0277787247484703	0.0277799219793292	0.0285932973941561	0.0272935954935208	0.0288153095783568	0.0317360305560947	0.0314755342387024	0.0309670849355203	0.029706990917323	0.0285569752747357	0.0291013989994448	0.0278026255409185	0.0308000656220908	0.0292185049781567	0.0286152652929929	0.0285099728248691	0.0287329637047197	0.0265326266585436	0.0222283029652533	0.0228710366080875	0.0210027826901247	0.0230135528652548	0.0241944578298331	0.0231354091999081	0.0202516097830134	0.019399765475597	0.019104877486178	0.0202702474711716	0.0209759948172608	0.0206241770728639	0.0203606456088075	0.0225976542957048	0.0230095762038134	0.0246554501427338	0.0230954232523947	0.0217959271483909	0.0237430940512619	0.0249445949842523	0.0248250474690878	0.0246004133752116	0.0228389428103894	0.0255423246436485	0.0263796066929843	0.0286600160760768	0.0269543556790122	0.0274113445028954	0.0255395206190651	0.0258090092115188	0.0267325692440299	0.0261164458744741	0.0254756030340606	0.02615091687088	0.0241721714710595	0.0244835715940092	0.0233136752535702	0.0212978623250851	0.0210556618135101	0.0202716509850701	0.0206927273281028	0.0220333762710956	0.0227884486503901	0.0226391845920624	0.0184803339754956	0.0191497976018301	0.0197897251510377	0.0216858183929549	0.0193407342502289	0.0203245877772101
0.016280101914211	0.0163682187264727	0.0166032906705324	0.0155453434421128	0.0151618394547384	0.0157431280251221	0.0151041157643273	0.0136182784605501	0.0130914484984689	0.0117996108406301	0.0120966316572105	0.0114418585385212	0.0139242545832228	0.0145055431536066	0.0137141347086399	0.0142865472410609	0.0137842250670145	0.0135837221100103	0.0150491260119206	0.0150158855285906	0.0165985780043554	0.0167030339126286	0.0162725891363199	0.0182545885005829	0.0192459919657397	0.0160669068442498	0.0162978271231761	0.0168690914101614	0.0181857392076429	0.0189128837260308	0.0173993144269636	0.0181521087565731	0.0192656864244147	0.0174772404448687	0.0194392744470677	0.0168845634923262	0.0177186421991412	0.0173201126040286	0.0168426392403888	0.0167403716017262	0.0161918325535928	0.0156458097712199	0.0168869539216838	0.016955617581244	0.0148613505967067	0.0136727370688527	0.0146893293428168	0.0126779202275943	0.0125499770709862	0.0126645236941014	0.0150868317239904	0.0153490832031861	0.0144882883638385	0.0137027578326954	0.0141659735654378	0.0150491260119206	0.0148901298350449	0.0167091561041236	0.0181044953746891	0.0174342990303288	0.01969198916849	0.0198799875619186	0.0174288171307752	0.0173250019240312	0.0182186780076605	0.0189504451449966	0.0197699794418734	0.0206978087678935	0.0186668205519029	0.0191728016074941	0.0193994096775154	0.0189401450610509	0.019572698406796	0.0177186421991412	0.0169566812715339	0.01736946920247	0.016876297444348	0.0171658279967102	0.0166347107303719	0.0149175205171604	0.0168869539216838	0.016247941660889	0.0136727370688527	0.0136727370688527	0.0131877556747697	0.0126779202275943	0.0126645236941014	0.0145055431536066	0.0158424723456139	0.015076251921368	0.0148678358114447	0.0143655136373983	0.0127778287312981	0.0141588647173447	0.0157471506462909	0.0167091561041236	0.0174342990303288	0.0193246851869356	0.0195126835803643	0.0205040870455212	0.0173250019240312	0.0175559222029576	0.0181271864899429	0.0194438342874244	0.0206978087678935	0.0178452229168872	0.019374496472258	0.0193994096775154	0.0185309003690311	0.019966104409149	0.0174113934544074	0.0178781681796681	0.0178469425661099	0.01736946920247	0.0179299573685104	0.0159630218940504	0.0161726397333011	0.0163056653513	0.016955617581244	0.0148613505967067	0.0136727370688527	0.013406858759112	0.0126779202275943	0.0125499770709862	0.0130053821982963	0.0150868317239904	0.0153490832031861	0.0144882883638385	0.0137027578326954	0.0141659735654378	0.0150491260119206	0.0141588647173447	0.0167091561041236	0.0182680505028765	0.016627442766573	0.0201540601655607	0.0192386109767222	0.0174288171307752	0.0165693613024077	0.0174378493653162	0.0189504451449966	0.0202254374141148	0.0206978087678935	0.019374496472258	0.0191728016074941	0.0193994096775154	0.018596155900386	0.0174347082752969	0.0169274875574401	0.0161655266298329	0.016578314560769	0.0160851428026469	0.0163746733550092	0.0158435560886709	0.0141263658754593	0.0160957992799827	0.0154567870191879	0.0122608954092196	0.0122608954092196	0.0121199031758014	0.0122514443138225	0.0120438366761693	0.0127779278486794	0.0141148570406868	0.0126858808117379	0.0131402205065175	0.0126378983324712	0.011050213426371	0.0124312494124176	0.0142048177824269	0.0153725767440409	0.0158498973796939	0.0171195965183687	0.0173075949117974	0.0176141507120945	0.0162268415424594	0.015876473251002	0.0163680730569423	0.0176996263704583	0.0184915298538567	0.0156389440028504	0.0171682175582211	0.0171437741650371	0.0155848797662842
0.0162872028262315	0.0147050317621691	0.0138358329680614	0.0130707418406757	0.01379994769703	0.0136863060482785	0.0114321775838588	0.0111100233230905	0.0107304758754844	0.0122883382500512	0.0123977709022828	0.0129790594726666	0.0128344335917002	0.0110480011896233	0.0111859348660308	0.012537887001663	0.00822007915402073	0.00848960553656422	0.00909814007241865	0.0108503292229214	0.010743713691871	0.0124316170764962	0.0125649689129159	0.0137245743669382	0.0161201494762931	0.0170199959031307	0.017564386863948	0.018168354106144	0.020013063337294	0.0217907821071174	0.0220797906435027	0.0232804913018907	0.0219570719432067	0.0207489344847126	0.0189620522857954	0.0182474042869062	0.0160863029450282	0.0153830558522561	0.0157252508666781	0.0150939280478429	0.0129686420077394	0.0151336339228671	0.0139934394936704	0.0137943546025214	0.0119590075459401	0.0112573058375656	0.0127388721550177	0.0137054295067084	0.0142135653551029	0.0135591040269611	0.0117556771099784	0.0128303548227899	0.0130955863747016	0.0120159682709373	0.00950904364475957	0.00933367675712589	0.0103871045631575	0.0124947491796806	0.01362036308871	0.0138493829130603	0.014846797288911	0.0160743896060705	0.0175711104395097	0.0202400020872926	0.020389978634609	0.02043204742138	0.0233917196176504	0.0234555314005478	0.0237088375605454	0.0234513939226892	0.0239375569013458	0.0216871161905427	0.0196681780111581	0.0183159135999034	0.0171754646747535	0.0176015718012589	0.0158325265803136	0.0149633277862059	0.0154510660660092	0.0152603352513018	0.0154113127372398	0.0131571842728202	0.0123729590149811	0.0130180198906236	0.0140133449390126	0.0150427142623059	0.0159762232870245	0.0155863880160152	0.013273125651857	0.0139923478986483	0.0153443000342805	0.010693599450511	0.0109631258330545	0.0113070412342193	0.0130592303847221	0.0129526148536716	0.0137214892470226	0.0153745349307798	0.01540573788687	0.0170936370758699	0.0184709568663473	0.0197466129448648	0.019769291616677	0.0225848633538946	0.0233917196176504	0.0236807281540357	0.0248814288124237	0.0239375569013458	0.0223498719952457	0.0205629897963285	0.0198483417974392	0.0172950414263682	0.0166656292275781	0.0165637916980138	0.0149633277862059	0.0135693068638027	0.0152603352513018	0.0149269970858609	0.0143297755246985	0.0128350300120519	0.0124554825644458	0.0145577358998299	0.0149036062335885	0.0156240028326897	0.0156772174249031	0.013273125651857	0.0137665147942848	0.0146130349165803	0.0126134801417542	0.010693599450511	0.0105182325628773	0.0113070412342193	0.0134146858507424	0.0139777624335939	0.0147693195841221	0.0158520082944196	0.0167371454107735	0.0174490925418902	0.0195087369695924	0.020389978634609	0.0210133359917637	0.0233917196176504	0.0232157033774327	0.0241317653421333	0.0232115658995742	0.0236977288782308	0.0219916791282449	0.0196085137743242	0.0180760855767884	0.0154734286072759	0.0165002005898446	0.0147311553688993	0.0138619565747915	0.0139915509823196	0.0141589640398874	0.0139931775016013	0.0120036681718713	0.0108398954664261	0.0118645037896747	0.0128598288380637	0.0135505500606791	0.0153852445122535	0.0152944151033656	0.0129811527392074	0.0137003749859987	0.0150523271216309	0.0104016265378614	0.0111809883675803	0.0113070412342193	0.0126796829371159	0.0133538960484098	0.0127212547814845	0.0149949874831737	0.0150261904392639	0.0172239250754391	0.0180914094187411	0.0188226745364414	0.0188453532082536	0.0216609249454712	0.022467781209227	0.0225169617224972	0.0237176623808853	0.0226912669203427	0.0211035820142426
0.0101657803428644	0.0113383715947427	0.0115992035778493	0.011054812617032	0.0101348098882608	0.00843604719740506	0.00847927229306513	0.00809972484545899	0.0105658271562889	0.0101528363547616	0.010662671801937	0.0108793720858622	0.0103349811250449	0.00967100451788041	0.0088242560613063	0.00975038599183368	0.00941002366171379	0.00891663451928599	0.0101146726172869	0.0114620945964187	0.0102946799625629	0.00905095873743205	0.0104029063982578	0.0118007687833778	0.0113491970478512	0.0109304156400129	0.0109304156400129	0.00985035171917421	0.00946861274946411	0.0117157560932108	0.0122583738369358	0.011929281193541	0.0111504146070367	0.0115426136362297	0.0114105130406871	0.0104896736341052	0.0101698541989511	0.00988049368722066	0.0109632517022235	0.0126983802802797	0.0118522839763911	0.0116272735149152	0.00983418341282741	0.00963879088693028	0.00927674365242423	0.0101195772905171	0.0106382067503278	0.0110679441321031	0.0101284994688975	0.0106571353858132	0.00999315877864872	0.00882056752677036	0.0103710645822026	0.01129719451273	0.00997005389775452	0.0115733643259215	0.0114120663926201	0.0129626794559235	0.0101043781159006	0.0114563257767263	0.0128541881618463	0.011568864953772	0.0120804621655514	0.0116616807577131	0.0112060414243306	0.0108274834680911	0.0117157560932108	0.0132465947161029	0.0122439491439992	0.0116381218469795	0.0115831553951362	0.0123082471604565	0.0110363975650308	0.0105302153930118	0.0111469859478679	0.0118734658539628	0.0130460571058412	0.0128741483008482	0.0131635088125786	0.0114097546112597	0.00971099192040398	0.00975421701606404	0.0105970506541569	0.0118407718792878	0.0110355820485675	0.0107645888533986	0.0117621177796681	0.011134608749453	0.00999315877864872	0.0091464103220746	0.0103710645822026	0.0104634430401823	0.0106328097024575	0.0111680919957554	0.0125155139748873	0.0113480993410315	0.0101043781159006	0.0109464903295509	0.0123921171647755	0.011568864953772	0.0116616807577131	0.0116616807577131	0.011014357624974	0.00990135353756369	0.0121484968813104	0.0122439491439992	0.0123620219816405	0.0115831553951362	0.0115831553951362	0.0110363975650308	0.00990952837507978	0.0101973226568846	0.010775305472391	0.0118734658539628	0.0136085944320191	0.0123297573400309	0.0113491062569315	0.0103116567764672	0.0101162642505701	0.00937466956845791	0.0114485728500948	0.0111156801139676	0.0115454174957429	0.0106059728325373	0.0108124544886847	0.0104706321422885	0.00936495848758764	0.0096397994645024	0.0104634430401823	0.00997005389775452	0.0115733643259215	0.0118527581701843	0.0106853435363285	0.0094416223111976	0.0107935699720233	0.0117586915690437	0.0104733683609695	0.0109849655727488	0.0105661841649105	0.00967780404342844	0.00973198687528853	0.0106202595004083	0.0114883423185974	0.0111484525511966	0.0112053810588799	0.0111504146070367	0.0118755063723569	0.0106036567769312	0.0105302153930118	0.0111469859478679	0.011395992490323	0.0130460571058412	0.0128741483008482	0.0131635088125786	0.0114097546112597	0.00971099192040398	0.00975421701606404	0.0105970506541569	0.0114485728500948	0.0106433830193745	0.0103723898242056	0.0113699187504751	0.0102803387231892	0.00960095974945571	0.00890361127464458	0.0096348763923448	0.00972725485032449	0.0103900106550275	0.0104319038058976	0.0115637354613627	0.00909763315053279	0.00957510651417259	0.00993974536418313	0.0112855241474354	0.0101293792003046	0.0102221950042457	0.00967780404342844	0.00991886103217147	0.00880585694476115	0.0110530002885079	0.0111484525511966	0.0108258336112738	0.0107582155778436	0.0110911083139709
0.00635761598781715	0.00741642055173214	0.00668712886039086	0.00620965549675106	0.00658920294435719	0.00702194373245678	0.00588775475611436	0.00494044660841328	0.00494044660841328	0.00494044660841328	0.00550298393459114	0.00554095228320292	0.0044427919016311	0.0044427919016311	0.00338398733771611	0.00407181409947859	0.00483732246875298	0.00561323998919553	0.00574478112721655	0.00640753693191952	0.00531348293342848	0.00531348293342848	0.00683714494672644	0.00627460762054859	0.00586933529038249	0.00665542067977512	0.00665542067977512	0.00710215793952001	0.00717435897299371	0.00602930315611319	0.00482064484757106	0.00516053688118948	0.0072018990273816	0.0072018990273816	0.00603369248010394	0.00567823701408363	0.00604554099563795	0.00714370137720977	0.00635761598781715	0.00741642055173214	0.00668712886039086	0.00658920294435719	0.00793215788419616	0.00844199333137156	0.00678097439294791	0.00636049620732807	0.00636049620732807	0.00636049620732807	0.0065557295519516	0.00586284150054588	0.00586284150054588	0.00480403693663089	0.00508659136822727	0.00549186369839337	0.00625737206766776	0.00612307543637092	0.00691737237909491	0.00580687207585627	0.00531348293342848	0.00648168948070613	0.00627460762054859	0.00586933529038249	0.00628811669822079	0.00665542067977512	0.00665542067977512	0.0066968856093539	0.00717435897299371	0.00482064484757106	0.00464133925944542	0.00568736684327072	0.0072018990273816	0.0072018990273816	0.00567823701408363	0.00604554099563795	0.00714370137720977	0.00635761598781715	0.00741642055173214	0.00668712886039086	0.00620965549675106	0.00658920294435719	0.00793215788419616	0.00679796890785375	0.0063939370269815	0.0068873261694093	0.0068873261694093	0.00744986349558716	0.00806912041458272	0.0069709600330109	0.0069709600330109	0.00591215546909591	0.00659998223085839	0.00622043478325226	0.00814140812057533	0.00802549091155993	0.00802549091155993	0.00589477150381226	0.00589477150381226	0.00741843351711023	0.00685589619093237	0.00586933529038249	0.00665542067977512	0.00665542067977512	0.00710215793952001	0.00717435897299371	0.00602930315611319	0.00482064484757106	0.00568736684327072	0.0072018990273816	0.0072018990273816	0.00603369248010394	0.00604554099563795	0.00604554099563795	0.00672491996937147	0.00635761598781715	0.00741642055173214	0.00668712886039086	0.00658920294435719	0.00702194373245678	0.00797992233430078	0.00627113894577251	0.0068873261694093	0.0068873261694093	0.00744986349558716	0.00708255951403283	0.0069709600330109	0.0069709600330109	0.00591215546909591	0.00619470990069229	0.00659998223085839	0.00736549060013278	0.00787257055403236	0.00802549091155993	0.0069149906083213	0.00589477150381226	0.00706297805108992	0.00685589619093237	0.00645062386076627	0.00628811669822079	0.00665542067977512	0.00665542067977512	0.0066968856093539	0.00717435897299371	0.00482064484757106	0.00397858345474245	0.00568736684327072	0.0072018990273816	0.0072018990273816	0.00567823701408363	0.00604554099563795	0.00714370137720977	0.00635761598781715	0.0069692550706959	0.00623996337935463	0.00576249001571482	0.00614203746332096	0.00799482785033532	0.00582397346473628	0.00541994158386403	0.00644016068837306	0.00644016068837306	0.0066353940329966	0.0070406663631627	0.00652379455197466	0.00652379455197466	0.00591215546909591	0.00659998223085839	0.00622043478325226	0.00814140812057533	0.00802549091155993	0.00802549091155993	0.00589477150381226	0.00589477150381226	0.00685589619093237	0.00685589619093237	0.00586933529038249	0.00665542067977512	0.00665542067977512	0.00710215793952001	0.00717435897299371	0.00602930315611319	0.00417926826237464	0.00568736684327072	0.0072018990273816	0.0072018990273816
0.00412951997338889	0.00403028625868081	0.00403028625868081	0.00350952330580854	0.00380149621845814	0.00466218934244026	0.00577399629993445	0.00577399629993445	0.00575808052114646	0.00577115382211956	0.00546634782106053	0.00595973696348833	0.00576579973753433	0.00614534718514047	0.00533436674810915	0.00529513278787698	0.00529513278787698	0.00450977073279959	0.00543009584274337	0.00431828888524917	0.00585971627815191	0.0054703597267738	0.00598019517394919	0.00762405877971944	0.00786193475499187	0.00758223535935808	0.00849244951109746	0.00849244951109746	0.00905244642420191	0.00905244642420191	0.00776481733270381	0.00776481733270381	0.00693106586015612	0.00712205141239497	0.00702086129916018	0.00698617015002867	0.00444070312957334	0.004534792303555	0.004534792303555	0.00443555858884692	0.00391479563597464	0.0046224715563297	0.00540783361140709	0.00577513759296141	0.00738033369288341	0.00738033369288341	0.00697221888490241	0.00697221888490241	0.00666741288384338	0.00663397206418994	0.00734641224792332	0.00695421321873032	0.00653543181089201	0.00649619785065983	0.00549654901765518	0.00592348498517116	0.00481167802767697	0.00515204035779686	0.00538224291451211	0.0054703597267738	0.00645123346216076	0.00835532389741967	0.00845517194939201	0.00807562450178587	0.00898583865352526	0.00954583556662971	0.00954583556662971	0.00954583556662971	0.00825820647513161	0.00825820647513161	0.00721016822465667	0.00751425044158798	0.00700441499441259	0.00566535738970137	0.00546092223408238	0.004534792303555	0.00401677718100861	0.00443555858884692	0.00391479563597464	0.00540783361140709	0.00577513759296141	0.00688694455045561	0.00738033369288341	0.00736441791409541	0.00697221888490241	0.00666741288384338	0.00666741288384338	0.00696686480031719	0.00734641224792332	0.00653543181089201	0.00649619785065983	0.00649619785065983	0.00500315987522738	0.00592348498517116	0.00481167802767697	0.00585971627815191	0.0054703597267738	0.00598019517394919	0.00762405877971944	0.00786193475499187	0.00807562450178587	0.00898583865352526	0.00898583865352526	0.00954583556662971	0.00954583556662971	0.00825820647513161	0.00825820647513161	0.00742445500258392	0.00721016822465667	0.00751425044158798	0.00683818270726005	0.00546092223408238	0.00502818144598279	0.004534792303555	0.00443555858884692	0.00391479563597464	0.00391479563597464	0.00577513759296141	0.0060868997808017	0.00688694455045561	0.00688694455045561	0.00697221888490241	0.00697221888490241	0.00666741288384338	0.00663397206418994	0.00734641224792332	0.00695421321873032	0.00653543181089201	0.00649619785065983	0.00500315987522738	0.00592348498517116	0.00481167802767697	0.00515204035779686	0.00538224291451211	0.00598019517394919	0.00645123346216076	0.00835532389741967	0.00796178280696421	0.00855309786542568	0.00898583865352526	0.00860629120591913	0.00860629120591913	0.00860629120591913	0.00731866211442103	0.00731866211442103	0.00627062386394608	0.00657470608087739	0.00652694163077278	0.00472581302899078	0.0045213778733718	0.00359524794284441	0.00307723282029803	0.00349601422813634	0.00391479563597464	0.00540783361140709	0.00577513759296141	0.00688694455045561	0.00738033369288341	0.00776969024426152	0.00697221888490241	0.00666741288384338	0.00614058292176215	0.00734641224792332	0.00734641224792332	0.00653543181089201	0.00649619785065983	0.00649619785065983	0.00519839321985092	0.00561172279733087	0.00564542950022466	0.00585971627815191	0.0054703597267738	0.00598019517394919	0.00762405877971944	0.00786193475499187	0.00807562450178587	0.00898583865352526	0.00898583865352526	0.00860629120591913	0.00860629120591913	0.00731866211442103	0.00731866211442103	0.00648491064187334	0.00666282289313909
0.00362673528796393	0.00393849747580422	0.00444733679306518	0.00444733679306518	0.00354749036622759	0.00294760077568692	0.00267980177631768	0.00309858318415598	0.00354574866519222	0.00354574866519222	0.0032017595045274	0.0032017595045274	0.00360703183469351	0.00360703183469351	0.00248472498652101	0.00248472498652101	0.00286427243412714	0.00289559057948416	0.00267098577115582	0.00253143455897187	0.00208426907793563	0.00208426907793563	0.00246381652554176	0.00283112050709609	0.00341240907747987	0.00300713674731376	0.00300713674731376	0.00330884209038501	0.00292929464277888	0.00333575192718867	0.00462231732312846	0.00507295712391413	0.00461088612684335	0.00502966753468165	0.00502966753468165	0.00462680526618602	0.00404551669580223	0.00404551669580223	0.00404551669580223	0.00486611820090348	0.00486611820090348	0.00451066273488317	0.00357451816329646	0.00366112051033384	0.00351736459199429	0.00396453007303053	0.00354574866519222	0.0032017595045274	0.0032017595045274	0.00360703183469351	0.00360703183469351	0.00329526964685322	0.00248472498652101	0.00286427243412714	0.00335766157655494	0.00289559057948416	0.0024881449697394	0.00253143455897187	0.00208426907793563	0.00208426907793563	0.00283112050709609	0.00341240907747987	0.00300713674731376	0.00300713674731376	0.00370104111957802	0.00370104111957802	0.0036769491379922	0.0049257647248867	0.00559059714825891	0.00534707431670117	0.00534707431670117	0.00576585572453948	0.00573029743759816	0.00536299345604384	0.00478170488566006	0.00478170488566006	0.00549873940366645	0.00594137247926853	0.00594137247926853	0.00550359704950171	0.0038730424928971	0.00495630563004957	0.00495630563004957	0.00540347111108581	0.0049846897032475	0.00464070054258268	0.00464070054258268	0.00504597287274878	0.00504597287274878	0.00392366602457629	0.0035719483544822	0.0035719483544822	0.00360326649983922	0.00285183172942963	0.00253143455897187	0.00208426907793563	0.00208426907793563	0.00283112050709609	0.00283112050709609	0.00300713674731376	0.00300713674731376	0.00330884209038501	0.00370104111957802	0.00332149367197188	0.00372795095638168	0.00535850551298629	0.00580914531377195	0.00534707431670117	0.00534707431670117	0.00576585572453948	0.00536299345604384	0.00478170488566006	0.00478170488566006	0.00509346707350034	0.00560230639076131	0.00594137247926853	0.00558591701324821	0.0046497724416615	0.00439238562803406	0.00495630563004957	0.00540347111108581	0.0049846897032475	0.00464070054258268	0.00464070054258268	0.00504597287274878	0.00504597287274878	0.00432893835474239	0.00392366602457629	0.0035719483544822	0.00310987735741142	0.00310987735741142	0.00240173217623431	0.00169405625587925	0.00124689077484301	0.00124689077484301	0.00199374220400347	0.00257503077438725	0.00216975844422115	0.00216975844422115	0.0024714637872924	0.00248411536887927	0.00338396179571686	0.00416069174448126	0.00529930986659656	0.00483723886952578	0.00483723886952578	0.00525602027736409	0.00485315800886845	0.00485315800886845	0.00427186943848466	0.00427186943848466	0.00468719861341981	0.00470027191439291	0.00543153703209313	0.00499376160232632	0.0038730424928971	0.00424862970969451	0.00540347111108581	0.00540347111108581	0.0049846897032475	0.00464070054258268	0.00464070054258268	0.00504597287274878	0.00473421068490849	0.00392366602457629	0.0035719483544822	0.0035719483544822	0.00310987735741142	0.00235844258700184	0.00169405625587925	0.00124689077484301	0.00124689077484301	0.00199374220400347	0.00199374220400347	0.00216975844422115	0.00216975844422115	0.0024714637872924	0.0028636628164854	0.00283957083489958	0.00338396179571686	0.0047367725404187	0.00483723886952578	0.00483723886952578	0.00483723886952578
0.00387187048547474	0.00387187048547474	0.00464860043423914	0.00524926529030238	0.00460788870510596	0.00426389954444114	0.00372926914393031	0.0031085821259983	0.00267512451728002	0.00316851365970782	0.00316851365970782	0.00341431883415599	0.00279363181622397	0.00279363181622397	0.00279363181622397	0.00141623701139633	0.00141623701139633	0.00196062797221361	0.00196062797221361	0.00236590030237971	0.00254268221569956	0.00305899588048586	0.00367968289841787	0.00405923034602401	0.00390425458046368	0.00390425458046368	0.00390425458046368	0.00390425458046368	0.00390425458046368	0.00400124020484282	0.00468921852617246	0.00487985976601847	0.00535195014918281	0.00490478466814658	0.0037215603240367	0.0037215603240367	0.00385184832360596	0.00387187048547474	0.00387187048547474	0.00387187048547474	0.00524926529030238	0.00524926529030238	0.00460788870510596	0.00391991038377633	0.0031085821259983	0.00267512451728002	0.00316851365970782	0.00316851365970782	0.00341431883415599	0.00341431883415599	0.00279363181622397	0.00279363181622397	0.00201690186745957	0.00141623701139633	0.00196062797221361	0.00196062797221361	0.00196062797221361	0.00270988946304453	0.00343701317777204	0.00412684837945411	0.00412684837945411	0.00375075520543668	0.00435142006149992	0.00435142006149992	0.00435142006149992	0.00435142006149992	0.00435142006149992	0.00444840568587906	0.00532702524705471	0.00554243993482063	0.00579911563021905	0.00434224734196872	0.0037215603240367	0.00385184832360596	0.00325118346754272	0.00387187048547474	0.00387187048547474	0.00524926529030238	0.00524926529030238	0.00460788870510596	0.00391991038377633	0.00372926914393031	0.00250791726993505	0.00267512451728002	0.00316851365970782	0.00316851365970782	0.00341431883415599	0.00279363181622397	0.00279363181622397	0.00279363181622397	0.00141623701139633	0.00141623701139633	0.00196062797221361	0.00196062797221361	0.00270988946304453	0.00254268221569956	0.00350616136152209	0.00412684837945411	0.00375075520543668	0.00435142006149992	0.00435142006149992	0.00435142006149992	0.00435142006149992	0.00435142006149992	0.00444840568587906	0.0051363840072087	0.00532702524705471	0.00579911563021905	0.00535195014918281	0.0037215603240367	0.0037215603240367	0.00385184832360596	0.00387187048547474	0.00387187048547474	0.00387187048547474	0.00524926529030238	0.00524926529030238	0.00460788870510596	0.00372926914393031	0.0031085821259983	0.00250791726993505	0.00300130641236285	0.00300130641236285	0.00324711158681102	0.00324711158681102	0.00262642456887901	0.00262642456887901	0.00124902976405136	0.00124902976405136	0.00179342072486864	0.00179342072486864	0.00219869305503474	0.00254268221569956	0.00355238502291365	0.00412684837945411	0.00412684837945411	0.00375075520543668	0.00435142006149992	0.00435142006149992	0.00435142006149992	0.00435142006149992	0.00435142006149992	0.00444840568587906	0.00532702524705471	0.00457776375622379	0.00517842861228703	0.0037215603240367	0.00310087330610469	0.00323116130567394	0.0026304964496107	0.00325118346754272	0.00325118346754272	0.00462857827237036	0.00462857827237036	0.00398720168717395	0.00329922336584431	0.0031085821259983	0.00250791726993505	0.00250791726993505	0.00300130641236285	0.00300130641236285	0.00324711158681102	0.00262642456887901	0.00262642456887901	0.00262642456887901	0.00124902976405136	0.00179342072486864	0.00179342072486864	0.00179342072486864	0.00254268221569956	0.0029898476967358	0.00412684837945411	0.00412684837945411	0.00375075520543668	0.00435142006149992	0.00435142006149992	0.00435142006149992	0.00435142006149992	0.00435142006149992	0.00444840568587906	0.00479239484654388	0.00457776375622379	0.00423377459555897	0.00322407178834488
0.00371444631654456	0.00371444631654456	0.00371444631654456	0.00330917398637846	0.00330917398637846	0.00276478302556118	0.00329161298764241	0.00288634065747631	0.00342101977605036	0.00231109849031115	0.00195564302429084	0.00197320402302688	0.00286753498509936	0.0033943649471806	0.00397565351756438	0.00397565351756438	0.00445312688120418	0.00445312688120418	0.00445312688120418	0.00445312688120418	0.00455768999821347	0.00458780919033244	0.00458780919033244	0.00458780919033244	0.00359625274847893	0.00314908726744269	0.00204096873497767	0.00204096873497767	0.00244624106514377	0.00196876770150397	0.00198632870024001	0.00198632870024001	0.00239160103040611	0.00172223960270381	0.00283216088844301	0.00359288868462943	0.00411971864671066	0.00411971864671066	0.00411971864671066	0.00411971864671066	0.00371444631654456	0.00371444631654456	0.00371444631654456	0.00369688531780852	0.00369688531780852	0.0033295813362542	0.00337912662518022	0.00271637082047726	0.00142881306220961	0.00242036950406312	0.00286753498509936	0.00397565351756438	0.00397565351756438	0.00397565351756438	0.00445312688120418	0.00497995684328542	0.00445312688120418	0.00445312688120418	0.00458780919033244	0.00458780919033244	0.00458780919033244	0.00444869055968127	0.00355435959760879	0.00302752963552756	0.00244624106514377	0.00285151339530988	0.00237404003167007	0.00237404003167007	0.00239160103040611	0.00239160103040611	0.00265434189495115	0.00257467741390615	0.00323743321860911	0.00452499097687677	0.00411971864671066	0.00411971864671066	0.00411971864671066	0.00411971864671066	0.00371444631654456	0.00371444631654456	0.00369688531780852	0.00369688531780852	0.00329161298764241	0.00382629210621646	0.00271637082047726	0.00236091535445695	0.00197320402302688	0.00286753498509936	0.0033943649471806	0.00397565351756438	0.00397565351756438	0.00445312688120418	0.00497995684328542	0.00445312688120418	0.00445312688120418	0.00455768999821347	0.00458780919033244	0.00458780919033244	0.00458780919033244	0.00400152507864503	0.00355435959760879	0.00244624106514377	0.00244624106514377	0.00285151339530988	0.00237404003167007	0.00239160103040611	0.00239160103040611	0.00279687336057222	0.00212751193286991	0.00323743321860911	0.00359288868462943	0.00452499097687677	0.00411971864671066	0.00411971864671066	0.00411971864671066	0.00371444631654456	0.00371444631654456	0.00371444631654456	0.00369688531780852	0.00369688531780852	0.0033295813362542	0.00337912662518022	0.00271637082047726	0.00142881306220961	0.00242036950406312	0.00286753498509936	0.00397565351756438	0.00397565351756438	0.00397565351756438	0.00445312688120418	0.00445312688120418	0.00445312688120418	0.00445312688120418	0.00458780919033244	0.00458780919033244	0.00458780919033244	0.00404341822951516	0.00355435959760879	0.00302752963552756	0.00244624106514377	0.00285151339530988	0.00237404003167007	0.00239160103040611	0.00239160103040611	0.00239160103040611	0.00265434189495115	0.00257467741390615	0.00323743321860911	0.00452499097687677	0.00411971864671066	0.00411971864671066	0.00411971864671066	0.00411971864671066	0.00371444631654456	0.00371444631654456	0.00369688531780852	0.00369688531780852	0.00329161298764241	0.00356167297152682	0.00245175168578762	0.00209629621976731	0.00215575036937348	0.00260291585040972	0.00312974581249096	0.00371103438287474	0.00371103438287474	0.00418850774651454	0.00471533770859578	0.00418850774651454	0.00418850774651454	0.00429307086352383	0.00458780919033244	0.00458780919033244	0.00458780919033244	0.00400152507864503	0.00355435959760879	0.00244624106514377	0.00244624106514377	0.00285151339530988	0.00237404003167007	0.00239160103040611	0.00239160103040611	0.00316417734212654	0.00257467741390615
0.00366297404745483	0.00398711136811812	0.0036198073865638	0.00327581822589898	0.00235342586489572	0.00260768890715951	0.00260768890715951	0.00214561791008874	0.00214561791008874	0.00214561791008874	0.00182346364932044	0.00182346364932044	0.00182346364932044	0.00182346364932044	0.00123802882150197	0.00164330115166807	0.00199875661768839	0.00199875661768839	0.00139809176162514	0.00175354722764545	0.00175354722764545	0.00175354722764545	0.00192075447499042	0.00192075447499042	0.00192075447499042	0.00192075447499042	0.0021820519821456	0.00254935596369992	0.00278977813726988	0.00338790242530883	0.00340141150298103	0.00304595603696072	0.0035080270340315	0.0035080270340315	0.00334081978668653	0.00366297404745483	0.00366297404745483	0.00366297404745483	0.00366297404745483	0.0036198073865638	0.00327581822589898	0.00235342586489572	0.00234268738953677	0.00292984316792781	0.00246777217085704	0.00246777217085704	0.00246777217085704	0.00214561791008874	0.00214561791008874	0.00214561791008874	0.00214561791008874	0.00156018308227027	0.00156018308227027	0.00196545541243637	0.00232091087845668	0.00139809176162514	0.00175354722764545	0.00175354722764545	0.00175354722764545	0.00192075447499042	0.00192075447499042	0.00192075447499042	0.00192075447499042	0.00192075447499042	0.00254935596369992	0.00248807279419863	0.00305500968918159	0.00338790242530883	0.00340141150298103	0.0035080270340315	0.0035080270340315	0.0035080270340315	0.00366297404745483	0.00366297404745483	0.00366297404745483	0.00366297404745483	0.00398711136811812	0.00396379654722862	0.00331810204349255	0.00236452228943329	0.00327383232859263	0.00327383232859263	0.00281176133152185	0.00281176133152185	0.00281176133152185	0.00248960707075355	0.00248960707075355	0.00248960707075355	0.00248960707075355	0.00190417224293509	0.00196545541243637	0.00232091087845668	0.00232091087845668	0.00139809176162514	0.00175354722764545	0.00175354722764545	0.00175354722764545	0.00192075447499042	0.00192075447499042	0.00192075447499042	0.00192075447499042	0.0021820519821456	0.00254935596369992	0.00278977813726988	0.00338790242530883	0.00340141150298103	0.00304595603696072	0.0035080270340315	0.0035080270340315	0.00334081978668653	0.00366297404745483	0.00366297404745483	0.00366297404745483	0.00401842951347514	0.0036198073865638	0.0036198073865638	0.00269741502556054	0.00296518714549654	0.00327383232859263	0.00281176133152185	0.00281176133152185	0.00281176133152185	0.00248960707075355	0.00248960707075355	0.00248960707075355	0.00248960707075355	0.00190417224293509	0.00190417224293509	0.00232091087845668	0.00232091087845668	0.00139809176162514	0.00175354722764545	0.00175354722764545	0.00175354722764545	0.00192075447499042	0.00192075447499042	0.00192075447499042	0.00192075447499042	0.00192075447499042	0.00254935596369992	0.00248807279419863	0.00305500968918159	0.00338790242530883	0.00340141150298103	0.0035080270340315	0.0035080270340315	0.0035080270340315	0.00366297404745483	0.00366297404745483	0.00366297404745483	0.00366297404745483	0.00398711136811812	0.0036198073865638	0.00331810204349255	0.00236452228943329	0.00327383232859263	0.00327383232859263	0.00281176133152185	0.00281176133152185	0.00281176133152185	0.00248960707075355	0.00248960707075355	0.00248960707075355	0.00213415160473324	0.00190417224293509	0.00196545541243637	0.00232091087845668	0.00172024602239344	0.00139809176162514	0.00175354722764545	0.00175354722764545	0.00192075447499042	0.00192075447499042	0.00192075447499042	0.00192075447499042	0.00192075447499042	0.0021820519821456	0.00254935596369992	0.00213261732817832	0.00275330434611034	0.00276681342378254	0.00287342895483301	0.00287342895483301	0.00287342895483301
0.00203368812347682	0.00256051808555806	0.00203368812347682	0.00203368812347682	0.00203368812347682	0.00203368812347682	0.00169503650935889	0.00169503650935889	0.00169503650935889	0.00105365992416247	0.00105365992416247	0.00105365992416247	0.00158048988624371	0.00158048988624371	0.00105365992416247	0.00130148221471469	0.00130148221471469	0.00179487135714249	0.00126804139506125	0.00126804139506125	0.00157980358290154	0.00190195784366984	0.00190195784366984	0.00190195784366984	0.0013751278815886	0.0013751278815886	0.0013751278815886	0.00165413555311762	0.00165413555311762	0.00165413555311762	0.00116074641068983	0.002026227986889	0.002026227986889	0.00171446579904871	0.00203368812347682	0.00203368812347682	0.00203368812347682	0.00203368812347682	0.00256051808555806	0.00256051808555806	0.00203368812347682	0.00203368812347682	0.00203368812347682	0.00256051808555806	0.00169503650935889	0.00169503650935889	0.00169503650935889	0.00105365992416247	0.00105365992416247	0.00158048988624371	0.00158048988624371	0.00105365992416247	0.00130148221471469	0.00130148221471469	0.00130148221471469	0.00179487135714249	0.00126804139506125	0.00126804139506125	0.00157980358290154	0.00190195784366984	0.00190195784366984	0.00190195784366984	0.0013751278815886	0.0013751278815886	0.0013751278815886	0.00165413555311762	0.00165413555311762	0.00116074641068983	0.00159348719878941	0.002026227986889	0.00171446579904871	0.00139231153828041	0.00203368812347682	0.00203368812347682	0.00203368812347682	0.00203368812347682	0.00256051808555806	0.00203368812347682	0.00203368812347682	0.00203368812347682	0.00203368812347682	0.00214220199039513	0.00214220199039513	0.00214220199039513	0.00150082540519871	0.00150082540519871	0.00202765536727995	0.00202765536727995	0.00150082540519871	0.00150082540519871	0.00174864769575092	0.00174864769575092	0.00224203683817872	0.00171520687609748	0.00126804139506125	0.00157980358290154	0.00190195784366984	0.00190195784366984	0.00190195784366984	0.0013751278815886	0.0013751278815886	0.0013751278815886	0.00165413555311762	0.00165413555311762	0.00165413555311762	0.00116074641068983	0.002026227986889	0.002026227986889	0.00171446579904871	0.00203368812347682	0.00203368812347682	0.00203368812347682	0.00203368812347682	0.00256051808555806	0.00256051808555806	0.00203368812347682	0.00203368812347682	0.00203368812347682	0.00212777729745848	0.00214220199039513	0.00214220199039513	0.00214220199039513	0.00150082540519871	0.00150082540519871	0.00202765536727995	0.00202765536727995	0.00150082540519871	0.00150082540519871	0.00150082540519871	0.00199421454762651	0.00199421454762651	0.00146738458554527	0.00102021910450904	0.00133198129234932	0.00165413555311762	0.00165413555311762	0.00112730559103639	0.00112730559103639	0.00112730559103639	0.00165413555311762	0.00165413555311762	0.00165413555311762	0.00116074641068983	0.00159348719878941	0.002026227986889	0.00171446579904871	0.00139231153828041	0.00203368812347682	0.00203368812347682	0.00203368812347682	0.00203368812347682	0.00256051808555806	0.00203368812347682	0.00203368812347682	0.00203368812347682	0.00256051808555806	0.00169503650935889	0.00214220199039513	0.00214220199039513	0.00150082540519871	0.00150082540519871	0.00202765536727995	0.00202765536727995	0.00150082540519871	0.00150082540519871	0.00150082540519871	0.00150082540519871	0.00199421454762651	0.00146738458554527	0.00102021910450904	0.00102021910450904	0.00102021910450904	0.00102021910450904	0.00102021910450904	0.000493389142427798	0.000493389142427798	0.000493389142427798	0.00102021910450904	0.00102021910450904	0.000526829962081237	0.000526829962081237	0.00139231153828041	0.00139231153828041	0.00139231153828041
