1.84437943336176	1.81673154203696	1.80772686401471	1.79740318778689	1.80138292704557	1.81588970076552	1.81115680523477	1.82347804850631	1.8090404619244	1.8075190098335	1.80062067140014	1.77734875947811	1.79643684802207	1.81152218113681	1.81139836890465	1.81735102408156	1.81953191337542	1.80821091814578	1.77156269925493	1.77225346006358	1.74368097635718	1.76271161130778	1.77107638719055	1.77295650530807	1.77165502722616	1.76789486446616	1.76052275083242	1.78881826037734	1.81017131152237	1.81402135863486	1.79741471425566	1.81473599204234	1.8218132130821	1.84062251945084	1.86420737241369	1.88451587199536	1.88155917923034	1.88415958407698	1.88281283930382	1.90766940522184	1.89686359492492	1.87878251768658	1.89396999901829	1.92555026764771	1.90687025349121	1.90878750855792	1.90868077772545	1.86526708312775	1.860052328702	1.88375593104455	1.85562692401575	1.87198242725666	1.86556032565469	1.88359804544832	1.91513538620788	1.90682023041294	1.90935987182562	1.91443586004848	1.90622127057392	1.93167321234915	1.94372732288204	1.9562309873565	1.96420747568708	1.94677129428024	1.92761633888929	1.90813936571706	1.88481986775362	1.88266980581594	1.90402870513841	1.92066845303024	1.90781672349365	1.8919790461949	1.89456388938087	1.86895974625189	1.85187504959643	1.87914743761219	1.89264301361644	1.87936020267082	1.88830618691757	1.84497179455255	1.83248783860584	1.82442375601557	1.80586656052398	1.81102586238487	1.82025653074208	1.83864201311912	1.83153833954609	1.80712509243075	1.83223640777753	1.82932693952406	1.84812303542337	1.88065912412228	1.88800173390905	1.87426271961845	1.89333748509289	1.90046334436955	1.91671223891993	1.92901757279242	1.94291320344621	1.92016031469376	1.93758243719505	1.94653404120047	1.94077688697131	1.93219328972292	1.93940664525918	1.9380203307	1.94667410249476	1.95094511082318	1.94088763514496	1.9003331678786	1.89749242138393	1.92301116319793	1.88576539180462	1.90408362877387	1.89772901414648	1.90784434448017	1.93682767320559	1.96478056770397	1.94281372511547	1.94051111353601	1.95943159462937	1.97829089093314	1.9515423270048	1.96581469648416	1.98986505903174	1.97966229224365	1.95865974955509	1.94944281496219	1.91829499002783	1.89947049052445	1.92521442574733	1.92287976995238	1.9429569860263	1.92608261183201	1.92654908536672	1.92050094988723	1.89606459985884	1.90521341689713	1.91248140655705	1.91147615121792	1.92017047689899	1.90235494080507	1.87742836943215	1.88300162638699	1.86976969718798	1.84487757466108	1.85837411070483	1.86636245976145	1.8814887010567	1.8571745759406	1.86021422786104	1.86869846175368	1.89289957988013	1.91789964612697	1.89432716181321	1.90089646289271	1.89400727731947	1.93031705777333	1.94194520435543	1.95909232570159	1.97952545563606	1.96266367105661	1.95824946361308	1.98858080314153	1.97083345742889	1.96987069931964	1.97722663715935	1.98783136791349	2.00902347203149	1.99839115151403	1.99829635758334	1.97278349369081	1.94585735809012	1.95405197194762	1.95261895781664	1.94302978294745	1.94365982446364	1.93909489881901	1.95769093666431	1.98714028600822	1.95969630778925	1.98015124582446	1.98358956092388	1.97161015980105	1.98549088418928	1.99405204135511	1.99605005946299	1.99706943039261	1.99436226252763	1.97082986783717	1.95933727245775	1.92020419563767
1.64068389362591	1.67338038945906	1.66950424154955	1.65894796143664	1.65389230347251	1.64540140607814	1.68043151087216	1.70439881898749	1.74551530463684	1.73744205836863	1.71930651322892	1.77071124335265	1.79624176030864	1.81220854956266	1.79721751146993	1.79779935635174	1.82651248200247	1.84693687808824	1.86820343256444	1.85012005122121	1.82667285241622	1.8010380983583	1.8126940647428	1.82177428577192	1.78418497119957	1.79918239138861	1.8254031286488	1.84798468201665	1.83103017787193	1.83684797379013	1.82706329683127	1.80502613961808	1.84757674284126	1.85455692245044	1.83460656613705	1.81997314943148	1.81383762172863	1.78997244037404	1.7730718211828	1.76864522226891	1.77884639088523	1.74941208139647	1.73239004023003	1.70309171214242	1.69774835432017	1.69429193644932	1.69771610387232	1.71695038669682	1.69153291335919	1.70971843908393	1.68029641136967	1.65516030182928	1.62607571456261	1.66887987181894	1.70700319394468	1.72372746914772	1.71049912739145	1.72676399186416	1.73201772650819	1.74199704334132	1.79310941009371	1.78846490636189	1.80900087156964	1.81179225710373	1.85410656743506	1.84420765467603	1.81405169605822	1.7995179187498	1.82302333525233	1.83129221840484	1.8670797102693	1.89191144526349	1.85388266194426	1.87820136442	1.93091877201538	1.95817235375551	1.92632875046982	1.93756774373076	1.95329676263391	1.97446068413729	2.00364174244911	2.02918101745277	1.98128833519203	1.96301531302283	1.96694721852218	1.95280565780849	1.93851924922386	1.93525523995748	1.95054211417178	1.97669771240213	1.96727777194754	1.93931269741233	1.94258330004216	1.90867724092508	1.92702192368827	1.93455067389045	1.92927498205058	1.89635376323145	1.91274328949532	1.86606442732541	1.85154568234607	1.84809713437869	1.86360923033287	1.83882887816563	1.83510439213957	1.79696532646074	1.79721443119307	1.76759906903375	1.7752693226495	1.80307863163785	1.78333766095866	1.78863856979231	1.76452245381027	1.75680567952001	1.71645794274126	1.72539940358189	1.76881569248034	1.78503951865746	1.80546767330807	1.80711099448738	1.8055213217065	1.79017704217133	1.83153724843408	1.86626126775376	1.8756706112585	1.86356259133141	1.91549937122238	1.92124514106607	1.8957837736207	1.90140644711426	1.87874601258906	1.89125535193502	1.9091609245122	1.96697814281115	1.9358910590042	1.93431005387339	1.96291329387811	1.97975391228578	2.00392129340964	1.97976914089001	1.98838451595319	2.01336799023289	2.0325299142279	2.0708563081655	2.02887320436365	2.01747546109531	2.01558213915647	2.02003293621629	1.99338788650749	1.99545045156493	1.99736095718362	2.04231650503716	2.05939535498174	2.03477940464325	2.02244643390292	2.01693332333381	1.99467143508218	2.01871804415097	2.0114664992036	1.99927099722626	1.98046148158856	1.96228316679839	1.93270739236539	1.90928172803934	1.89976576570741	1.92474908109379	1.88040663822371	1.86574601393487	1.84514496430323	1.83191931830785	1.82967106395148	1.85574855522815	1.86296044256752	1.82408811998504	1.83179089471775	1.80801053293816	1.79381663135756	1.75982227984947	1.79851090065129	1.82501653040826	1.86294959441841	1.84971105065338	1.84140779755666	1.82940622510528	1.85040813547869	1.90910810339486	1.90466549400906	1.91966784504787	1.91639398107825	1.96414624004841	1.94956107386132	1.93290669503736
1.36079336665215	1.35685162061183	1.38589738604839	1.39487883616486	1.35828281007421	1.36702694222096	1.36272310908386	1.38662621585865	1.3783647152199	1.37793282287449	1.42644247081069	1.43295403190065	1.4697063450897	1.48289712238494	1.48885287623388	1.51005776813877	1.50453081913162	1.52821427745368	1.52921360225883	1.54306269032157	1.5597377046185	1.59441947644649	1.5708226732208	1.57275637499898	1.57753236692768	1.58306951831715	1.58290932728682	1.56696582436609	1.55042034746043	1.53996749977669	1.52861165231359	1.52833393241587	1.50580433595749	1.48611093896388	1.46463200428967	1.46557636235729	1.49104741060156	1.52142994196042	1.5092891380284	1.50590213719608	1.49405686018145	1.54442330045118	1.55632441378681	1.54261221748419	1.56477186376287	1.56261717072516	1.59301389171708	1.63747342977104	1.63096440609198	1.60164443572138	1.62229930545387	1.60268744225728	1.59720274709709	1.62350696036856	1.6126672860915	1.65360960957406	1.65622915144996	1.65006229846611	1.63923820476281	1.63317977085262	1.58954024556764	1.59088042224092	1.55914620558752	1.53899989067218	1.58216564261237	1.5610228531892	1.58032273560416	1.56446048675097	1.53572127083074	1.56764837519858	1.54930418574847	1.54858275835697	1.56622396200711	1.60361994415207	1.60707160456694	1.66516418711287	1.65935424103267	1.68151633018786	1.6828458198233	1.69049662870748	1.69540950754584	1.69110859812062	1.73256717335448	1.74285714467557	1.76631903741762	1.74114233425499	1.73365831679367	1.73903516485424	1.73222827926318	1.71233120414732	1.70669574803512	1.68868664165355	1.67514467516117	1.68485525584747	1.63518721604092	1.65387679281451	1.60353604502871	1.59953760246464	1.60398112060543	1.63506566522054	1.61409830315601	1.62971737654139	1.62309429970781	1.62804151608862	1.6649710759152	1.65180839474493	1.64193304639038	1.66616355278275	1.68111644949277	1.70577830433836	1.73360332040709	1.72600709620149	1.7102257368	1.73172228362929	1.70739861561827	1.73866498691537	1.69841954255961	1.72363219014296	1.76851401703447	1.7485582623726	1.74153772909583	1.72383664510996	1.71689670474695	1.67469211392983	1.6912584470872	1.64650543397428	1.67480187974654	1.65830106428286	1.67827271354619	1.64936742868913	1.66859297490802	1.65229533878142	1.66321043510862	1.66540122283864	1.65258952981621	1.69219453656935	1.71379277025035	1.71265040398409	1.74625596906099	1.75097060169903	1.77906470461024	1.79161762048828	1.78349710944752	1.77925808238541	1.80113666139113	1.81646246744263	1.85484650807328	1.82167805575417	1.81065853196794	1.82426457059377	1.82903005054078	1.80964914699493	1.7789128262078	1.77432363825539	1.74675107811148	1.75619589755171	1.73237944906936	1.71483127684336	1.68771304774722	1.67115547263496	1.67281405965738	1.68041816411657	1.68557570454553	1.68108575391082	1.67221356979446	1.6728923436484	1.71215471801938	1.71610768781438	1.69217345281408	1.70584725693137	1.72173474504377	1.74950873950322	1.77916122772624	1.77646221908635	1.75359063747487	1.77088847862295	1.76274712625524	1.75354544214641	1.76085086991251	1.76914805660719	1.79305302381118	1.80176290764592	1.80107430082101	1.79861625470483	1.78648459378402	1.75213345301144	1.74329281832355	1.72357718807552	1.70558281422289	1.75347165672691	1.74382354726543	1.71863887354272
1.14760149740319	1.15059541603693	1.16859911347573	1.1413160146706	1.14749809236035	1.17490515124931	1.18969388324217	1.19975473421145	1.1848939617538	1.20103337785496	1.17829486963969	1.17550966511463	1.19379792941625	1.21871498044089	1.26943594817628	1.26462061613418	1.28441156387399	1.28818342439273	1.28391547713154	1.26150770676994	1.27170501837083	1.29486878077745	1.31384277248215	1.32617475713703	1.31790288436241	1.34338415439255	1.3222179369085	1.32486556574797	1.31751450316895	1.30366598028258	1.30243258847095	1.31022054118165	1.32886563555294	1.32618426797742	1.33134823114314	1.313312277051	1.33391940575349	1.31609008967018	1.30671134186712	1.33648933685756	1.34165378052142	1.36531868372941	1.35725624560722	1.34761162466826	1.36044245640724	1.35241989088457	1.35851576292814	1.37802412579918	1.37910246058234	1.372991972514	1.36689515035789	1.35608830317313	1.34242862932256	1.339474585789	1.35227607116227	1.35457463499859	1.35317633215203	1.35703835800667	1.36566111889743	1.35299715951618	1.37388614881719	1.36608503481922	1.35090413859464	1.34490157393291	1.34787923339275	1.35632570330633	1.33289248719006	1.35446673199022	1.36379331723939	1.37616131806441	1.37430368037225	1.35285762060841	1.35040441990825	1.31800632057642	1.33122903640223	1.35908950610164	1.38708681749224	1.42789411638735	1.41224799209611	1.43134725874463	1.43772758266789	1.41764852031883	1.40344604000625	1.43050242116104	1.43839461474484	1.45976857012408	1.47997085875071	1.47500279917759	1.49108559588691	1.46085741765248	1.48325154017374	1.46847825337116	1.4421425278038	1.44635027744578	1.47712952833085	1.48862416360686	1.4788614580228	1.47810351496163	1.46283915063323	1.46642865812288	1.48085339473884	1.48452236699598	1.47985338926122	1.48272401851413	1.48979096919658	1.49086414499001	1.46947854355727	1.46167672278316	1.45924408468022	1.48440029546929	1.49023175317705	1.48113754176709	1.46929325431065	1.46851227230014	1.45430191774598	1.42999433839728	1.45123171811975	1.44071304225451	1.45334834764339	1.45221739759769	1.44849015950987	1.44052739025331	1.43420669553907	1.45013905052742	1.43666858363705	1.42609148838655	1.4204821458484	1.43717289071975	1.42693317909206	1.42998666361343	1.44733293706698	1.44989380335782	1.46424563575407	1.47227623575685	1.46527259328742	1.44925661016892	1.43483576333811	1.44783637172232	1.46711288429319	1.51947139856688	1.52174740188171	1.52093654686337	1.52572087357609	1.52454650697101	1.49556542404244	1.50867117172493	1.51541731813408	1.54554787177222	1.56060030457131	1.55870576557961	1.5774732125955	1.54188494772709	1.56020689373093	1.54581917038064	1.52934301427514	1.52013170708653	1.54823579341307	1.56516190174505	1.56494610378992	1.56161197902856	1.5179430202227	1.57036314748757	1.54028962000033	1.55374511945695	1.55395204722802	1.54942384956436	1.57160036659994	1.57721567275919	1.54312631835267	1.55017335731246	1.53983921224579	1.52941491086635	1.55445625582925	1.53879829441106	1.55505692477242	1.55352420204419	1.52549909624713	1.51048257939086	1.50731816674997	1.5084922547434	1.50987431490394	1.51893177642995	1.49779809372753	1.49471176285378	1.4924672248713	1.48352351176328	1.4924313806321	1.47274588083816	1.47399464880168	1.47351892152918	1.46869697618065	1.44615908018599
0.963766958757035	0.973898156900199	0.98584634376322	0.981787408467565	1.00400705782977	1.02991645105675	1.01110121391548	1.00530617322749	1.01717516525704	1.04388047047426	1.03428522984622	1.04288655166484	1.06199180495984	1.070227129743	1.05461555893903	1.04619630055502	1.04388724672712	1.04341309818685	1.03464010314683	1.04135194627479	1.03858191965762	1.04881006772433	1.05828309209651	1.06451959774291	1.06398255937313	1.06595060704639	1.08072314021448	1.07830944244433	1.10191895726168	1.10390142476174	1.11035578313837	1.1153918707922	1.13658605122103	1.14941555981769	1.12930644939999	1.09052385556392	1.1104716988867	1.08471371508114	1.09713139411475	1.08384013418205	1.0811736012737	1.07589579399598	1.09581202593068	1.07445573070223	1.08825793192146	1.09569150156481	1.08836350288439	1.10068963282387	1.09469307189505	1.08799149886212	1.10259464418841	1.09556503828851	1.10929411276649	1.11305786884951	1.09998050525683	1.08890534108093	1.0908674573359	1.09808036526251	1.09989912764232	1.0952769371751	1.10230312856404	1.12285903682967	1.10690825589824	1.12907885909239	1.13761666065825	1.14891578189297	1.15530176581086	1.16339146032656	1.16437123654047	1.17938893824663	1.15753181407503	1.17025158123288	1.1798711513935	1.19039346501095	1.21223583742109	1.21407789907949	1.21554728734112	1.19320816609813	1.1795453810514	1.20624678598596	1.19807043409806	1.20593492921019	1.20218761596456	1.19992044321234	1.21970964428191	1.24216826012431	1.22682012339347	1.23710809654421	1.23284582925146	1.25648158027058	1.25591602995418	1.26044235652721	1.26165869584252	1.27780814182616	1.29150729592939	1.30815807585176	1.30210125186193	1.27424649294179	1.25543432695756	1.25076961988072	1.21760371510124	1.20278024070786	1.19615729803671	1.20510107248743	1.20138537811716	1.19880599674241	1.20173632973808	1.18870654128154	1.19689058231902	1.19467528255307	1.19498238652059	1.19482139336791	1.19156080369137	1.21727900770515	1.22571506787145	1.21527568326463	1.21496625135545	1.21486005548442	1.19734284684317	1.19976179081644	1.20129461915103	1.20896593430655	1.2013167030058	1.21849512695705	1.21449393207296	1.22289267822788	1.22182263129797	1.2472426444112	1.25904161778587	1.25837471934913	1.27173189015072	1.24755762127514	1.26300734862613	1.25705417939969	1.27408710648906	1.26226879494661	1.29052631025731	1.29037801647364	1.30824435369665	1.28863688697846	1.27153527079359	1.27805036423863	1.26137181381824	1.28281034107621	1.28958026862052	1.27077095885212	1.26837785792547	1.29105763361193	1.3164322977611	1.29942648128116	1.31041049782977	1.3346866123198	1.31945794295071	1.33550272056617	1.34423786002655	1.34944454708265	1.3620054271859	1.39342567213207	1.3749160009527	1.36084381403911	1.34070332343568	1.34015218959864	1.29620237464615	1.27504927769458	1.28506354101249	1.27918829746991	1.26721907107135	1.27949210347002	1.27490900794173	1.26190986297204	1.26445461036807	1.25947317384872	1.2771930282715	1.25991611612492	1.25905915030943	1.25463612671142	1.2650936273131	1.2710495021086	1.27007975600434	1.26163116256081	1.25014846360467	1.24962433518312	1.24715776225174	1.25155781029332	1.24157975330534	1.26008478600864	1.27582323235663	1.26093139589193	1.27240472190529	1.27801381210181	1.30119397577713	1.32886293473783
0.736905795607775	0.738588554490427	0.728879591500172	0.732812547530305	0.734190794575327	0.739964770825182	0.75755324423864	0.74084588286345	0.755646895036611	0.768593001365769	0.790362298828503	0.798283271317114	0.792080313886695	0.814110176631567	0.812375192675861	0.823654662090936	0.815062300218184	0.827433423738976	0.822942213268419	0.825676882540867	0.822718681871648	0.850147818812405	0.838312767518212	0.849407715795137	0.835358781730996	0.834192244522949	0.839067167629597	0.835816495499778	0.845029359857197	0.87445650664249	0.902895568582993	0.914222299586818	0.926997530281513	0.894808661247762	0.914787763989419	0.902395516625334	0.921062274467266	0.936299026424585	0.931899651390508	0.940524168871985	0.949145477957036	0.941617787631996	0.905929295908041	0.907307871336979	0.908807519506003	0.914371833644111	0.909410997709402	0.900418186023894	0.881156751176272	0.878784025453019	0.87880558918945	0.881063102921564	0.895318429290939	0.891216785419279	0.908476134820632	0.889786404595639	0.894858754387343	0.873790569357074	0.889215623257159	0.884755336418796	0.878462957705861	0.883352065063014	0.87459126684986	0.877816642015316	0.872698005995317	0.857964409217223	0.860260586857409	0.87449247189099	0.871203095873506	0.88977252133835	0.880881769702667	0.883057837946984	0.909183047200517	0.915568236422614	0.935588554599868	0.922764661971383	0.938393225223563	0.93425647552478	0.930898100575363	0.932677513648592	0.931852886073367	0.92765526994989	0.931819413884203	0.955603749647385	0.951366863191513	0.939110094968692	0.952496305912535	0.958794904923548	0.953032024865463	0.962028212928504	0.957782498413669	0.972277313965855	1.00933220170754	1.03149634868331	1.0237103392524	1.02662537650239	1.01919998983562	1.04062114743548	1.02211052046333	1.03910959264536	1.03958232414256	1.0387692965653	1.06747577065903	1.0620212902454	1.02890911836937	1.01661451784634	1.02033779440615	1.03022474557342	1.03316649616884	1.02718219472183	1.00505841555588	0.988850767296204	0.985340630391177	0.991071828826413	0.984653518886096	0.994334773346939	0.985747865772326	0.99263451327357	0.98786199586571	0.971018744382058	0.97238791607654	0.970322789366549	0.956889628117734	0.951781332081607	0.966384022805632	0.969360591969227	0.957090374085314	0.953724539716054	0.954880388549754	0.956076591830781	0.949484970975239	0.980406083359358	0.960642518535802	0.948980304583752	0.966575610697723	1.00153494304592	1.02068688284564	1.01311421240895	1.04023196403911	1.03602905357961	1.03790139932376	1.02963934889469	1.0505305921603	1.03116815094046	1.03721262797165	1.04840904277145	1.07052810197864	1.04615424735719	1.05220796118369	1.03562170344863	1.03202195707896	1.04537580608907	1.04229816096107	1.04089592486233	1.06536116159943	1.10115389302745	1.09866115845097	1.12537853397632	1.078242929935	1.10083410758454	1.08650842982286	1.1031018585363	1.12492916850114	1.1147638297626	1.12393240090741	1.13456088804346	1.10980254238381	1.06907552533193	1.09048328724682	1.07499772313015	1.11366964588958	1.09723051138861	1.0907522090237	1.07791965905568	1.06039260244176	1.06669923351786	1.06769290419654	1.06720913539511	1.07190063453212	1.09509025688989	1.06464653444609	1.06471505047392	1.04819718894194	1.0491172939687	1.04524578474115	1.03284650027518	1.02703083339812	1.03620645766291	1.02739429722238	1.01957007541888	1.01052509276716	1.01149765641373
0.60639813254813	0.606938844101831	0.601032132492704	0.602036170500432	0.597731276041017	0.589299192824054	0.606253529554596	0.599381800487007	0.596182928926274	0.607967960110201	0.609935363814056	0.615714567824077	0.644783731276944	0.651451043962868	0.670907346995455	0.707380568964949	0.711945967534718	0.730823453940795	0.736493259327556	0.727780993868189	0.732138119605566	0.740703030245831	0.756193240051057	0.750229611138205	0.742859559054977	0.734527393701056	0.725524453535804	0.685250939500966	0.669949007047686	0.666042843579472	0.659389743249337	0.65351540081439	0.652311843581416	0.658624422464419	0.664699370715376	0.651912530618204	0.655046634675039	0.669043789290125	0.669850082975073	0.685844751065068	0.719871149516605	0.728715636299238	0.729443787025406	0.733084031499867	0.755503624619779	0.763309213268038	0.768748982617447	0.775342118070585	0.796579884523958	0.794704145395891	0.781741671606245	0.783452914010259	0.770724645808034	0.762342525566677	0.752649849198823	0.761653449208328	0.755679424103912	0.761513001798359	0.750882504626601	0.735885441511194	0.734187105758594	0.712569370038655	0.709623427875264	0.697188597691158	0.695270978085256	0.697822570877281	0.70236380969177	0.690621690406304	0.698023470342326	0.704341504701915	0.702877199282002	0.695421891907784	0.695206409809946	0.701085196769741	0.713488683970681	0.73754996178645	0.738537101069626	0.779911658405226	0.800846432635991	0.826476131504031	0.818975681038682	0.831535875173298	0.816152468377092	0.830512796120261	0.842232063643878	0.860197118499963	0.860618580889698	0.846471186974178	0.852100345541767	0.829548830764992	0.786837250294316	0.776073696939457	0.769103803559988	0.770034918780777	0.755177208629861	0.757382368082167	0.75862712259314	0.750144129528252	0.734328366177096	0.737986840697304	0.760682473967797	0.764821871502896	0.792812994604103	0.814938827230063	0.816232514756127	0.80893271858466	0.829765610267106	0.846729543040153	0.863218563897753	0.866622876994057	0.872395849353108	0.891146839657347	0.876166855622906	0.891435640103412	0.8672737064592	0.865735787232619	0.852498655712452	0.860654529214244	0.84664495130439	0.846679782079777	0.834827590531799	0.83824561448623	0.822121075441945	0.816910484140268	0.810247980167109	0.78601606001159	0.78279943156223	0.768072802519708	0.775689860830752	0.763721301579476	0.772087161034133	0.78166349791946	0.786126638962884	0.773736437865746	0.769555035551694	0.776624226289789	0.794297464395094	0.811970237721185	0.820104109245857	0.833039973743851	0.8756047575259	0.885331528017155	0.906808611568342	0.903544806314843	0.89978286952822	0.909193551389949	0.916620716696623	0.921912845195623	0.929636746306807	0.90783122020222	0.906070140914354	0.889270211889789	0.86471102967035	0.839804873878149	0.83363844679885	0.828389441289364	0.823732514611046	0.810204136607941	0.805278371093539	0.817771286966236	0.813816568731644	0.804475342914751	0.81142773407457	0.824802352064037	0.851244600720857	0.857979288388579	0.884357926405098	0.881242989418621	0.886793303298403	0.916005991333217	0.928877021731484	0.918195232702449	0.932766418554929	0.946746276199559	0.942076063482067	0.94749022705775	0.93710629631928	0.941806151850726	0.922480790197369	0.911177038967661	0.924053147156018	0.904737067054652	0.909259752145479	0.905291338760076	0.883239134012859	0.88286228299346	0.87056784162129	0.864526220427553	0.857608146923088	0.849751459301843	0.840233919271698	0.84777043878354
0.475344985221179	0.484882691364266	0.480049842867143	0.487678011227531	0.488134460461979	0.499862475959105	0.492905489400978	0.490146925625221	0.484888139356395	0.49136851068195	0.504272891551486	0.505623020505263	0.528536945717686	0.547210574208457	0.560532455271233	0.562597837973191	0.584246060284614	0.592490014805217	0.588597319529114	0.585136876889939	0.600405308385771	0.611117195038916	0.59123702927165	0.589651963964834	0.597626928966892	0.577195610897587	0.572461742774745	0.55974716783779	0.554638670130234	0.566188254238715	0.562159153995728	0.580636398831329	0.56717144722787	0.566372713658343	0.56764669692948	0.560657921081815	0.55356412108189	0.54889938211375	0.56269821365683	0.554689865140732	0.563037731156203	0.565114224159494	0.569715169834778	0.563099693339799	0.571817357982635	0.582802919366915	0.581656459444936	0.575210492330125	0.581996100851315	0.588537739197528	0.58548797400434	0.578509604220258	0.575747840248262	0.566117639489335	0.561047456753281	0.548270897513874	0.553479559230581	0.548967088178158	0.558034097469526	0.576100019298797	0.575041220396702	0.585415263919602	0.569163954719188	0.57424076115696	0.574666845724912	0.573434195274608	0.585997835908037	0.589018640215769	0.599900893192922	0.597304838663723	0.584718180375868	0.569324430338915	0.579640163244583	0.587506300371294	0.594670499923637	0.607564176345192	0.616679922634357	0.631346821354233	0.639855901937641	0.648043187165108	0.651718252735414	0.646050886616258	0.661859438132038	0.675963122897753	0.681935688757032	0.682502285710645	0.67276410779115	0.666554020783389	0.66943720308368	0.669627260602037	0.645120291981812	0.643607995879168	0.650340059108994	0.664753554841284	0.665949580595124	0.657783119772723	0.651606216855867	0.649237004731059	0.632710007998242	0.625401854173427	0.626358114969924	0.635408551007871	0.634329670113704	0.627425126831734	0.638401507756787	0.630104530258744	0.623687313188732	0.645097668860518	0.654077720204768	0.650402582344355	0.65233181948025	0.652629324790779	0.647132310275524	0.649230063375811	0.64110072505084	0.639237051949929	0.624010791557603	0.62243279898868	0.624664131967054	0.621482059028959	0.605887860456927	0.628218977413681	0.634912327436117	0.652960407375519	0.650803223894144	0.640559242970253	0.650379110907329	0.649388327985573	0.663428200561375	0.6663687121416	0.669591521061878	0.661910377487111	0.658171146769438	0.644686749264503	0.642452815786838	0.649954486845535	0.660155001069439	0.676724114034135	0.687893385442706	0.691704797724169	0.70883388269199	0.724161714386503	0.715500585108516	0.723185642920582	0.724813171871455	0.746289381675946	0.750013721075114	0.748434008636761	0.750213158183313	0.739542285245558	0.735655633510601	0.731517821576452	0.729538434714858	0.709891693842597	0.716232688235479	0.72173334874812	0.745544073585191	0.732526275069475	0.725523520761999	0.719286614926366	0.705117244511884	0.700822582216631	0.699614319908284	0.710361114724662	0.712154798650892	0.711593602207917	0.713812547835176	0.714866911450504	0.703077876177051	0.713369815512763	0.726900730876211	0.732957676643404	0.724211543044414	0.716577605328212	0.703245247027255	0.704627249023313	0.702108452403205	0.686080636516963	0.682347658353889	0.676263978004765	0.663821454702398	0.666531342126477	0.660354491487324	0.658794218425145	0.684050613991467	0.680742630284517	0.700105818095751	0.676744638364725	0.702615667935757	0.695187569679816	0.692988067341663	0.704896166302033
0.377693164605186	0.386766609713678	0.37854471301864	0.368144059446569	0.368817929111374	0.370271230274189	0.344361675292656	0.352177279844124	0.352553712766547	0.374339872719297	0.38699199815393	0.399260335302181	0.406858061353723	0.393966677492229	0.407849071038988	0.42228075788863	0.410827839926098	0.424218846059095	0.442725533151792	0.4548140071819	0.451188054357538	0.444189369203526	0.437255065478128	0.443488592552135	0.436218941592198	0.441862212994023	0.429228960175286	0.441023307697071	0.453327268862869	0.4605133970543	0.454677549861295	0.445325788526108	0.453244579794698	0.455685642399751	0.460058137517397	0.45476404507629	0.457987122291134	0.458399357381529	0.448847420472445	0.455011240190661	0.436475259745179	0.444894312758789	0.449288356909145	0.449163437427611	0.447440103391253	0.436529894200081	0.447909794671079	0.444480455885588	0.457378474482376	0.468580074105656	0.46217702175314	0.45083105900718	0.44706005069286	0.458777606236864	0.453180619175996	0.447629161497103	0.463512998054848	0.463924337210533	0.46745393481685	0.461829445588876	0.450764334016901	0.433751931785827	0.435508715019818	0.457049422631411	0.458718348863514	0.44582645675802	0.441221204769863	0.437604283921985	0.427289042130877	0.414485256535877	0.416757514426467	0.417416653412474	0.441237801181844	0.45474264845194	0.471939553211767	0.457371985793858	0.480401341250005	0.488709944517852	0.498221103097338	0.504240867244632	0.519252789402346	0.533397947786747	0.539951496755763	0.528391205255787	0.531438247060516	0.519425968554542	0.521199320895221	0.528713036506709	0.521104533478356	0.510593370845294	0.518628701757938	0.525095095007243	0.526295580628889	0.522624762040965	0.516560889569914	0.523688925163247	0.522524679385701	0.526661660925317	0.528351772833126	0.516701087425136	0.515823461056086	0.511367816980732	0.520655058104394	0.503434718481091	0.513007129993237	0.510972662699258	0.515993825208565	0.498557982730223	0.502193087909744	0.512935627020738	0.505976714651506	0.522248352031856	0.526373472189068	0.531945452969084	0.519968482396463	0.528494047368914	0.527133496476255	0.524556269676508	0.515766658117317	0.526631071026932	0.522612755967714	0.523117389891441	0.506854556774617	0.498406848633842	0.488045830635087	0.492733996235473	0.503405789218154	0.495911118922147	0.485094420776834	0.479028854742466	0.470340869426671	0.4565430454507	0.463074385781861	0.475042190069927	0.491373020471264	0.519318626196486	0.53334237265604	0.534916660618795	0.520260473317042	0.546263689583419	0.556479907549986	0.543144902957838	0.567917662632214	0.588141361070485	0.596934290715508	0.601768635088497	0.581703747559143	0.575245596344829	0.564577958194861	0.571961908851921	0.576850981172332	0.56257985508516	0.553726877857338	0.584389399833555	0.583795361201582	0.581964015567363	0.57234151402295	0.577126393279151	0.58063412700768	0.573713416623632	0.579237864727816	0.575944577733118	0.572313563269615	0.567697638950664	0.577866544670935	0.558826155593358	0.560362718694014	0.563038974921309	0.550847678492542	0.547305061247689	0.54314074764671	0.54393000100463	0.549667362158833	0.557482629395653	0.560615713035498	0.562068508492147	0.557508780738984	0.550004305578308	0.557693542521049	0.547759994215621	0.544686654796164	0.555734589783391	0.550520033341623	0.54874147785446	0.542901227545936	0.527896458037995	0.508626457874622	0.51413727929646	0.536508316665338	0.533535231354239	0.51506868696878	0.517018206545241
0.321055374428435	0.323194241014506	0.329402097745173	0.337082874884743	0.33814466111627	0.330782609177467	0.328316155721619	0.329300907599442	0.320028401220082	0.306789213101388	0.318814335730624	0.309096136689694	0.314878131215633	0.328035154308137	0.322252832165142	0.322336687839264	0.320799580701353	0.333949793418414	0.339948120788383	0.341091482254962	0.341379365438462	0.347802295283982	0.340712629533136	0.336009380297394	0.337026197866239	0.31656104833475	0.316841360389494	0.320536019436695	0.318330542615802	0.318463282798005	0.308494237292147	0.304572605064762	0.305899984292959	0.324765270152662	0.325527385405928	0.32842040596584	0.333984418775477	0.337888189813051	0.345115522326111	0.346310192093671	0.344601159676096	0.34360975804605	0.351598579689973	0.357106703199072	0.363145578395445	0.367201642347831	0.362821136911453	0.355897828744636	0.35749693731362	0.345214787020815	0.339315372717394	0.343670568431461	0.34873039627104	0.347844507129352	0.345729822213474	0.3427889935415	0.343950936282204	0.333392196259136	0.348936457213175	0.352520122476902	0.358324973283781	0.361409281959172	0.371334905865269	0.369594052343976	0.371219389663181	0.375556775722925	0.385602391667965	0.379351522318692	0.381536483263624	0.370640552273357	0.355523292593116	0.345595142314897	0.351219933131223	0.349187470517147	0.346815113945317	0.358165861534542	0.365501466160093	0.367581396399584	0.376054947986176	0.377273174597921	0.386620829777061	0.395062448061143	0.402929612401213	0.405311564248158	0.407123476007694	0.400579334743025	0.395750950760973	0.389273485083022	0.376219054062034	0.387756324308738	0.381811138644605	0.372167011448536	0.364906487104383	0.362392387899874	0.363594150988153	0.363845807905371	0.380228556164516	0.380964566957484	0.38823516795089	0.39492867930236	0.401044053724661	0.405371477642767	0.403186879530661	0.399319457601063	0.404802596851698	0.407838655575104	0.412463094775568	0.428081589437839	0.431499559990194	0.421102716700259	0.406726351170596	0.404528338088311	0.397166000661868	0.396140592644566	0.402644928483902	0.407450108465516	0.397515789939691	0.398585724537772	0.399260744457366	0.39143629510979	0.380493603707582	0.393807180344779	0.406556325720699	0.409187511077172	0.413716883077188	0.428738277879166	0.428192853397286	0.429705815249181	0.434380299430899	0.427791772841309	0.425785221508742	0.420679843914761	0.413894258011538	0.410325278987711	0.395099903603944	0.398715915769537	0.398104538786916	0.413303960580634	0.416840419729682	0.407173495849366	0.417975610342376	0.426733649292557	0.428611055662764	0.437198217771414	0.442456785776653	0.440108242856565	0.444164683520878	0.442676347551761	0.439746482619254	0.421542023866076	0.411332614957677	0.410548499439576	0.42096942864253	0.419310917127706	0.412234970218099	0.411644048027801	0.417993336853859	0.41237407374786	0.426460976158214	0.429513442466526	0.435118918279637	0.43482593528573	0.447898812860268	0.453478520778187	0.450865894516217	0.447155939593425	0.443473471250507	0.445105334244634	0.448514116025858	0.447439517721613	0.4527159057622	0.450987299872343	0.44503204032796	0.443544841327003	0.433459929382145	0.426731779774749	0.4284726276045	0.440159504674534	0.43322009202727	0.424784382788452	0.432493645771067	0.432610551560732	0.421246762769387	0.428728356662025	0.435324707841129	0.434835425714288	0.440380618304528	0.451649470622058	0.448303282181463	0.4526406853843	0.457351513454826	0.458617621624166
0.214117883094588	0.206077191345087	0.191273498610012	0.20155172882749	0.203678546858684	0.209271366900388	0.212765344991294	0.219985910421969	0.225927839524503	0.224396235994208	0.226612867715964	0.231127165061299	0.231111500894944	0.235716167741104	0.238204422843134	0.232999628602723	0.235664886707486	0.248251934029581	0.243928659146191	0.245644563211255	0.246169420419349	0.249948406163519	0.254420470803009	0.254821948661641	0.255090038871375	0.240129550046669	0.230876646812968	0.236420482173186	0.239928694901255	0.235559208197616	0.239130002936974	0.248990359401677	0.25242995449803	0.253615807953494	0.248368663234201	0.254075275703618	0.251828228234741	0.261961972064413	0.267320917864769	0.274356809056627	0.261287631167997	0.260057514950066	0.260106019531679	0.265552670928656	0.261315569459986	0.251473647969839	0.262042051124793	0.253280779737236	0.260520702449423	0.251335866010346	0.258520826286092	0.279201056290984	0.287071034624312	0.286108706651256	0.285005686422921	0.268555235008984	0.266376891162611	0.261529960210693	0.253411426110843	0.257750394469837	0.252030827277294	0.247300405338998	0.247131136058389	0.245986810279528	0.227668931758509	0.238876686490972	0.239758599912558	0.244932733854986	0.251147244836334	0.253161655254392	0.255062915128183	0.263844924741871	0.263938692137224	0.265089479432128	0.265412683929292	0.268693256174512	0.270656837203247	0.26318652529715	0.270728442948594	0.275081152431574	0.283194231044292	0.280970014857736	0.2887997126707	0.28713258296455	0.293823706986829	0.303319844378784	0.298649962469633	0.290754211313787	0.275135160845141	0.272140318797692	0.274930050553723	0.277087964730876	0.286395105259043	0.291821420133901	0.298465607257251	0.299805615802057	0.296145152152785	0.300808560886494	0.295025710976428	0.30251672561646	0.313681794660574	0.311013456486939	0.310620208705247	0.305657599991709	0.302263983249526	0.29915461630659	0.297352396802538	0.301304710521886	0.299175247036921	0.29511516601782	0.298547591278204	0.301459859423821	0.300606922623588	0.306563683491608	0.334302344669635	0.338442434280909	0.334559825447082	0.320120102473581	0.311731336176273	0.301811585238884	0.295954547333714	0.285651063326979	0.283400502745197	0.276424844388417	0.27550337978581	0.278025047746057	0.261386043096486	0.253455119621042	0.268578562763495	0.278597728968811	0.282521269536512	0.289410633084692	0.288673836243576	0.303064534687943	0.305168689007578	0.313945508603399	0.314185731568396	0.313628955672021	0.315891435743135	0.323204044164871	0.312722531261886	0.318561855987194	0.325736393664641	0.327010213704196	0.324226066155287	0.330788082326376	0.33395352674308	0.342032427138686	0.346118348519969	0.346578854812591	0.329438978944668	0.314065225506194	0.310372543353487	0.319791912745061	0.312594454750884	0.326439552247217	0.334975695597337	0.33231430879049	0.339417725411904	0.328672164878193	0.33020307469227	0.323613456298235	0.338218743175924	0.341710985068103	0.340453004259261	0.333675329791419	0.338859732085397	0.330614286816741	0.328350652293127	0.323384166160171	0.321916336490622	0.326131420250418	0.310959484951008	0.323299238793225	0.322824302605463	0.326752659023587	0.345715996331328	0.365694046266022	0.356854807186887	0.355434275841949	0.333835741412175	0.33034427787728	0.324520512177258	0.314134474260367	0.312221938492126	0.305641903644353	0.299329945000096	0.298419887136286	0.289151328036711	0.27124138283871	0.284751829553282	0.285767921693239
0.158600676770843	0.161916080576383	0.163551125669741	0.163550995095354	0.169496012785693	0.169790080611526	0.172764984358185	0.184805946106684	0.186374170679958	0.191351940472065	0.194848028883653	0.210766629492852	0.213519226244423	0.209598851849977	0.200152675983783	0.208844340592825	0.220267822859849	0.209073706830094	0.209674735317752	0.216884616396967	0.213498533915667	0.221997998992757	0.214372412495968	0.208027834970354	0.212297942886304	0.211972928883035	0.217032928243846	0.223116048466288	0.214305541673207	0.217947021115645	0.211320713500698	0.213420822045925	0.215281842776695	0.214208187248556	0.209837073006099	0.211763971536144	0.210203311931824	0.212330014636714	0.207620789999896	0.207381300364354	0.210767292175928	0.204293745987102	0.23074257719509	0.227201395225735	0.227052877983484	0.23669744559587	0.233507053986461	0.225703632636242	0.232729745002117	0.226198298117725	0.219504651289313	0.224542324336893	0.222364337289539	0.219900200393571	0.212158927338954	0.209068933056281	0.201930592167518	0.191443815150129	0.190843226748975	0.194263952310876	0.19436306692227	0.190825296065816	0.196073980198572	0.208691046911195	0.206646837347131	0.205263926304839	0.206120216248181	0.207629276717913	0.213948063902841	0.219774339839893	0.222486366271411	0.219721194242658	0.230700714463097	0.235328214403859	0.24747421330575	0.243644710879405	0.239236875514554	0.234153323605326	0.245095681491883	0.246597871526388	0.239628754922453	0.244462233997322	0.250106372721718	0.254782377251666	0.261671144623085	0.251711380318998	0.252407609862422	0.261983121313472	0.259771742779483	0.264647933474482	0.262605378708067	0.260003428831143	0.260052951605345	0.256693010000347	0.268056319788232	0.260325615698007	0.256277930595814	0.254236085817875	0.249713633591365	0.243179852753015	0.24242360153332	0.23514807706342	0.239651082981461	0.243908796810197	0.255255558707357	0.264307050857826	0.258156173501444	0.257985700994075	0.258637320838297	0.258548930966329	0.263385761908706	0.266436558837539	0.260885374521729	0.256542306941752	0.263300107304506	0.266223799955174	0.247852304033666	0.243168180915532	0.23955351950606	0.238355084776294	0.235064365585837	0.232156564650801	0.225272814801952	0.232472259059708	0.227741934896849	0.236070796298954	0.24001292435648	0.237272503031147	0.234976095601704	0.229491974308434	0.237480568983798	0.243737054263039	0.252085861929093	0.250736571537706	0.259421250424363	0.26804122782468	0.27415979437521	0.27618507533445	0.274991948989138	0.262362699162602	0.26981105741036	0.285523742914576	0.275026582779092	0.276442305182102	0.27690067287854	0.277509226284848	0.278057328723467	0.274757946193706	0.268418774968443	0.270103237148755	0.272287777414815	0.283860757236871	0.282257817645854	0.277416121797548	0.287388611150122	0.277080608766462	0.278193601490622	0.28433802632115	0.276977469239498	0.271376028095957	0.277045344795119	0.276167634112963	0.277229219002994	0.273550193797683	0.266431483225581	0.265029073761263	0.265064732502158	0.283123915931404	0.284861210171171	0.279824442681005	0.282515932683199	0.28059870813618	0.277413014858702	0.280550744882751	0.283095068793201	0.276599125183912	0.277595079794852	0.280806101315095	0.279134874394479	0.262465366249452	0.257206685457511	0.257986943500822	0.241567115523952	0.242935089876098	0.247180362817739	0.240464584001637	0.242296893396958	0.237111555791104	0.247099641291025	0.246388296797547	0.248127317909398	0.247065158236032
0.126784586661419	0.127710914968273	0.131372004870073	0.136585716503	0.141480298157162	0.134971028297099	0.137367117188241	0.144448799099102	0.144424782146585	0.139270996882145	0.141143944163544	0.141938900111062	0.144147165989606	0.148828869010124	0.144004975723697	0.145886123308665	0.141249477616662	0.154699031043669	0.150880974433971	0.15199146815311	0.150638091529029	0.155463031098571	0.156089385463453	0.161401669998767	0.161270757547016	0.156525867347702	0.15788847987545	0.159130861513019	0.16519637281065	0.162901037230253	0.159824829932874	0.157605416591942	0.161131822174169	0.159354712519629	0.157349430848534	0.156050037195208	0.153828607530683	0.154373351215095	0.15800553353876	0.150732272460349	0.155026170988199	0.146068058899355	0.149393837686482	0.151828777013086	0.157550989941815	0.155604251602161	0.147571900573219	0.147299136983778	0.14217346858657	0.141087642258163	0.138010804077965	0.143377739284756	0.145678557705672	0.139279522052923	0.139036732176879	0.1443620659013	0.137539800668055	0.134063671003546	0.139125486290092	0.140202251692875	0.143753250603403	0.148518192553825	0.150340168068529	0.150814168388403	0.148363617195754	0.153849675308498	0.162061019387613	0.151864000412906	0.154115620580947	0.157199880413995	0.157203456249924	0.161893210088439	0.162385915499351	0.160782548462711	0.165807390429342	0.169710794891579	0.164671480230101	0.16277558923426	0.156629009536561	0.165306007649362	0.172459168766796	0.178168161634705	0.181990107426346	0.182435178631673	0.183464754234518	0.188549545616136	0.193786495002826	0.192508386530628	0.188966570697725	0.191192022332099	0.196912001925791	0.200708918992922	0.197076741852417	0.192056277063142	0.185240211541569	0.184182576165901	0.182671347830195	0.177931470186334	0.177098783005418	0.171947235045203	0.174261779872061	0.178133953274025	0.17029383167284	0.17109122103272	0.169644111531712	0.170251352602302	0.17260929982589	0.176344338447636	0.170180546087298	0.165937766549468	0.16370320139262	0.159942481968238	0.157140161810294	0.161202758218163	0.163329224591817	0.160632272961294	0.164866075547594	0.165160938402292	0.16548421607443	0.167080301919487	0.163360889218578	0.165085493324029	0.170936264845414	0.177920430354723	0.183018684562676	0.180899825812143	0.181189630497579	0.180794941821397	0.186882819384661	0.185492188594054	0.180119911933477	0.174161963526051	0.18124304344069	0.189425533100073	0.183807095778246	0.187786994117208	0.1902104083631	0.192140429028639	0.196932643736887	0.19253518037107	0.188877189524301	0.184399402926109	0.192159195440209	0.199425470820622	0.202491526021529	0.201972164976499	0.20998058206248	0.208193732518374	0.214805696387227	0.217742219271949	0.21176034997871	0.211555122551538	0.212820174994463	0.218318596151936	0.218352264248329	0.213781040645203	0.211805645373183	0.209615781429568	0.205072370237966	0.20033083322376	0.193124573701117	0.194145623474235	0.192283133010915	0.193060007367052	0.189797472358116	0.18657651379845	0.183725024009478	0.185760398110938	0.182802239542938	0.186429578239087	0.184900527113255	0.18029710571191	0.173845596980275	0.171207740829731	0.16520411183037	0.169233567695537	0.175455085036805	0.172129410547439	0.177030821213994	0.179172531847797	0.181585869470122	0.180853054666944	0.17892154793618	0.183497177600113	0.186924163241714	0.18961376850999	0.197095400258177	0.19406715913784	0.187354731327083	0.190042445088748	0.193281577849475	0.200881880813641
0.101555794350909	0.106816554742014	0.116032373357582	0.123639076355773	0.125216979045287	0.128054763193346	0.126824264228593	0.123694769919868	0.12971190845996	0.126868462812887	0.128166929146201	0.134322526278876	0.132412828553613	0.130267833801284	0.123468712431953	0.129715379063231	0.12233632673987	0.123638322945111	0.129608442604538	0.13108211112648	0.126601415390902	0.126796024834965	0.129849984078949	0.125157370773872	0.132654274016658	0.124868088705827	0.122047437257488	0.129434200430752	0.123018770740739	0.123406427865665	0.12315261497567	0.123581339774054	0.126586934786827	0.130372274671921	0.131395252099026	0.126162612408652	0.125058367751973	0.122843453978739	0.119442071799277	0.119858094787135	0.12185395170183	0.12135118786989	0.112640058271126	0.10905953477717	0.110628919754709	0.104006123778796	0.109381552100992	0.110969956746913	0.110487939215593	0.110357117885487	0.108586228628791	0.108601820137371	0.102621439402847	0.097023699949847	0.100038239888606	0.103118102988836	0.106149574408538	0.107482095450647	0.106182254028579	0.111939391326441	0.11378605623035	0.112836483684578	0.116358878583856	0.126463471929347	0.135123923007622	0.141790576350768	0.153836484203573	0.153025081895626	0.150580487125724	0.148362838382908	0.153513137742002	0.148792327122891	0.146632726770367	0.152342204959812	0.150868343006026	0.149100277247464	0.143954422460902	0.138248803688975	0.134684665776039	0.137662415100136	0.143567184553922	0.142513511891825	0.142968560167224	0.147043954287321	0.143094486384012	0.147252623226822	0.149932339845513	0.149949669419874	0.144600450939816	0.143967067787901	0.151886905309601	0.145918166721387	0.144709740816512	0.147710816397269	0.150046415342566	0.156098064022147	0.154497805019254	0.150541001091081	0.147571299527082	0.148216358961056	0.14412480777077	0.143518026239749	0.14018102681008	0.142099112401668	0.137982274830346	0.127710119391894	0.128635860008382	0.126640233668924	0.124258035703505	0.126219305035994	0.12852820616956	0.124896070493056	0.123850359774092	0.123821355658307	0.122199330524729	0.122527545664032	0.11744485139721	0.124880179967346	0.122862692802947	0.123148523016935	0.120420769593659	0.123760814281299	0.123837005340319	0.123417045256497	0.127659386026036	0.132553862002627	0.145967685080706	0.154721160981383	0.162864007330023	0.163641990189034	0.16972323500513	0.16654223070951	0.162907581615546	0.169041028796494	0.16320535648651	0.163469180189281	0.170069790499962	0.164748379056239	0.163693632101898	0.155676885115242	0.15205264012835	0.146866590785169	0.149265231249152	0.154028713743482	0.156639060554665	0.154757293157027	0.158095453024128	0.161899629872323	0.15960732442352	0.163052180673838	0.161014088047027	0.163898619475226	0.162344963997705	0.162588243323369	0.16197744381852	0.163210963924359	0.161556714030413	0.163862721931982	0.171899085551221	0.166899496696721	0.165261485942099	0.159066108229326	0.160076250030822	0.155363465779182	0.150894093501023	0.151190688534977	0.154207297746166	0.14625648306867	0.142126393171745	0.144064249902734	0.138516676986824	0.136756571379691	0.143148192742364	0.139082486021312	0.140082950084241	0.135984624911917	0.136929948841871	0.132437872836798	0.129120085524516	0.13487099984251	0.13405791572595	0.138710191923498	0.1401920618229	0.132747416814032	0.137268072702304	0.138831535319561	0.139417130739117	0.142238989586761	0.153635698090277	0.164753243107395	0.171112329531699	0.18142554773856
0.0885427852348421	0.0872805655599088	0.0878374052137553	0.0854655299212737	0.0850260481944805	0.0858862418687679	0.0901582821079266	0.0853171029244755	0.0788482314964732	0.0824856839627778	0.0877418963026181	0.0883558966342052	0.0853607883303324	0.0850689592316002	0.0853004674214003	0.0857987984364021	0.0859939197337771	0.0904929824986524	0.0941219748749264	0.0880708443048011	0.0909749660352109	0.0941250852095674	0.0918105330938795	0.085534400764736	0.089987994494389	0.0901657036044732	0.0914898543435432	0.0956053222726417	0.0949575630378908	0.102243796310794	0.101424193517639	0.10668750738177	0.105716783548992	0.108093192329235	0.112747200054878	0.115013200333255	0.122780901091516	0.119443913501194	0.123863132113958	0.12525764920664	0.123749531996307	0.119182657049095	0.116688429797279	0.114477822441122	0.115671190893539	0.117084922915004	0.112286156005791	0.11521006261334	0.110269482132204	0.106002169526512	0.102344521027015	0.0995807585252517	0.0990126732115923	0.0998040447066382	0.1005139809342	0.0985579388581012	0.0967014400159352	0.0998372576096992	0.100156001358759	0.0994231889806965	0.0960537066677537	0.0978930225903259	0.102479547506409	0.103451116825144	0.101770296557257	0.102942726030956	0.0981545213926986	0.105130788701126	0.102688178872735	0.103336128134113	0.0974985709115041	0.0971769637736147	0.101642129941556	0.106611557442523	0.100727247519403	0.10488522152966	0.10324151479909	0.105715471608097	0.10234058161884	0.103455876566598	0.106639069150462	0.110365075371789	0.112331292151074	0.11050400923943	0.113050619256422	0.106565775452922	0.106358298523322	0.110295080561721	0.113817953324765	0.109074362873898	0.114228202268914	0.116199208256164	0.117851757750036	0.122776095624609	0.120733444675149	0.126570653904637	0.123918067174574	0.127124698841769	0.130207258039727	0.137865438302388	0.134883699206732	0.138506947256367	0.136516176419678	0.134354993970945	0.131140251623357	0.12715107275007	0.134511114832017	0.131268724221047	0.131579387556699	0.13152100505092	0.129170640018554	0.124587782039377	0.120223481127989	0.113471570407899	0.115356768084723	0.113737884608555	0.121982115909809	0.122028259815877	0.114268494533051	0.110120117334031	0.112688735247349	0.111867110346235	0.10770840838167	0.109958556405605	0.112189642101929	0.114633336286165	0.11550913056164	0.114096156745731	0.114066686437187	0.113276779218217	0.115479643196609	0.113235649392553	0.113966020449376	0.111978243064595	0.112058461611326	0.11747696144964	0.118916569217825	0.120980104707135	0.119621263213126	0.121336973755391	0.122192855588637	0.115556886159495	0.124762804338531	0.122975579230662	0.12142986599814	0.123972172288693	0.125451396631687	0.122287149254932	0.117773529686551	0.118141635482312	0.123148768407605	0.121713174016694	0.121892942328975	0.121623274562016	0.125122998550368	0.121946232873802	0.128352891635234	0.130292911580389	0.132451565653419	0.136368140072773	0.137812585670247	0.143894825961146	0.145904810021821	0.152960083634935	0.148553347850702	0.148078586493271	0.140813780844773	0.145951150276803	0.145946499405208	0.147390241553168	0.148690945359172	0.144066354223398	0.144314491565104	0.140977401270626	0.134179062664337	0.128371627588573	0.127806272821942	0.125839598673912	0.128759836020055	0.131014510943808	0.126988192491763	0.120953173488879	0.118565128364228	0.119087026938847	0.116831934075831	0.116441345776595	0.117808438634682	0.124444629588076	0.124963180426825	0.12227747730196	0.124271967468224	0.126359058815604
0.066033562564366	0.0676858597750266	0.068846838839985	0.0698412403510698	0.070175236816092	0.0675130110091036	0.0705858700681808	0.0761319494731827	0.0774335568428624	0.0800921161690925	0.079824950896126	0.0770237609922768	0.0726214322889249	0.0697463656655597	0.0694630650832194	0.0694167207638634	0.0726933204956056	0.0732889073335524	0.0767337971616896	0.0731115270898945	0.0772348172825751	0.0774273631757755	0.0761764635250603	0.082446289634636	0.0789660115566366	0.0819765565710058	0.0859124627196383	0.088112935815925	0.090310184856295	0.0930176158123988	0.0917406114972728	0.0927642374992664	0.0902778148012234	0.0876965320980646	0.0909899194932483	0.0850711419250399	0.0852301496154732	0.0855279822225815	0.0790597123579567	0.0785225080466466	0.0767476517630826	0.073226643926417	0.0710618737741523	0.0751214792969331	0.0727475414805844	0.0724891437276772	0.0762119139375558	0.0753704250654739	0.0788927588503309	0.0819733764385167	0.0801742555591612	0.0796516528371404	0.0752983250093873	0.0777420188987491	0.0775066863945138	0.0708929303196923	0.0746936791152244	0.0737653029811201	0.0720635156444547	0.0669118670201509	0.06896177774676	0.0678469841409882	0.0764194913816364	0.0761964190454731	0.0837423020364532	0.0823203809891819	0.0838298491445416	0.0868607285842825	0.0871699767485534	0.0913734594050079	0.092872148587155	0.0955597126320845	0.0941081219527232	0.0941954892037522	0.0876201467107911	0.085356541768495	0.0843902443504696	0.0838782591413865	0.0858805346674356	0.0878412211377183	0.0863626001786892	0.0866415333843674	0.0846155727168045	0.0859300644813059	0.0839663953287868	0.0847985216118761	0.0843602831127147	0.0893882117898847	0.0942032686516898	0.0990918984604329	0.0973834000566806	0.102326018792735	0.105253605562196	0.103376873489575	0.102217755689278	0.102132511226659	0.105287823127759	0.106407841648737	0.104512350039592	0.104851034140574	0.100510996838268	0.0974448929293897	0.098992237610779	0.0925758864559293	0.0907326316737849	0.0936346626527782	0.0888544868896866	0.0881813463136114	0.08474163865031	0.0886988953946977	0.0898072255233729	0.0933775660267833	0.094637571418785	0.087354182403563	0.0838251609525627	0.0850738002593672	0.086393346069352	0.0799050863237498	0.0829782204098966	0.0827063609994133	0.0840288110454378	0.0803035023027337	0.077980834187581	0.0754784338892751	0.0790262339220652	0.0842857162817362	0.0873895020647927	0.0914822246369544	0.0925560891232784	0.0934102840686402	0.0930285847698991	0.0972761400997978	0.102664507854666	0.101725995206647	0.104262753563269	0.10468318882181	0.097637301077676	0.095981038473572	0.0919040860396685	0.0907861374778207	0.0891442763752689	0.0922609515102127	0.0933810610279546	0.0943598899600384	0.0908931740643909	0.0893496811499508	0.0897893038693976	0.0882896365420604	0.0951621298040712	0.0904376397989118	0.0970141404792146	0.103164282485917	0.107918585829821	0.109738012830809	0.113541549777564	0.10961435697964	0.112033348070966	0.110148149932202	0.109157338942542	0.110858095170025	0.109923920928706	0.112836831221795	0.106856290786962	0.105728975821425	0.106801197810413	0.102095344805954	0.0992993190554748	0.0968701203667596	0.0976945456087161	0.0948993274744082	0.0944824217806288	0.0933605338080472	0.0960336714786052	0.0967790012746703	0.0996244042647542	0.0969466117971989	0.0927211641501108	0.0844508417460448	0.0874496859351858	0.0870163536230757	0.0829287601651947	0.0851674355120652	0.0846015071657379	0.0825953815257854	0.0773553997464293	0.0816731755104525	0.0777580879953095	0.0851560968501016	0.0894289510381603	0.0926519567805754	0.0954820380699899	0.0975595251328037
0.0446475691794687	0.0460664295139195	0.0456440047074051	0.0449145909519768	0.0520325920547266	0.0481861650186115	0.0472011542310331	0.0468843810982583	0.0457528043696363	0.0442765264575871	0.042953843861883	0.0444187964621566	0.0475271173417762	0.0522579775787286	0.0515014210067161	0.0536025567099558	0.0531582658786087	0.0505491879483675	0.0578273369070281	0.0628193213046969	0.0627536625471207	0.0617716534902728	0.0587207500276715	0.0627501125639377	0.0617233952609001	0.0574222695362988	0.0646312050574555	0.0657272136974422	0.0699178948615948	0.0691977177732321	0.0654516663155284	0.0606242802907963	0.0611496565514182	0.0633272031871985	0.0626623277921105	0.0611670782810357	0.0628582055958735	0.0662364311782508	0.0630783066563828	0.0615597127083672	0.0633631622681551	0.0645161855557013	0.067056381696691	0.0654660202341399	0.0639068128645471	0.0599156665467119	0.0590359821128183	0.0584881525633059	0.0562327758313472	0.0538988279053526	0.0533215243408207	0.0510065330451236	0.0456568243203946	0.0454383016619447	0.0413790092392541	0.0442098322755584	0.0472860354591417	0.0472810719988854	0.0477997304246913	0.053266835868317	0.0559947764454626	0.0572309239039475	0.0541052898284165	0.0524349814869703	0.0536774139181891	0.0537218959846607	0.0538845358650744	0.0558513314411543	0.0512989348386701	0.0512342973548564	0.0500951058404289	0.049702094066562	0.049841651426005	0.0485372493759388	0.0502167811579948	0.0585914821328607	0.0573561308498109	0.0589101299442607	0.0634678876488429	0.0620700253127546	0.0605424571494784	0.068872249716406	0.0749547483816267	0.0716971265204439	0.0725800086587126	0.074158258441428	0.0763902232119371	0.0730096592983983	0.0746541209576208	0.0789456023371199	0.0797348162711048	0.0829402561458873	0.0835597299526272	0.07827054569261	0.077757582132936	0.0761709568676624	0.0762654267487749	0.0776932638474712	0.0741411962904295	0.0757747404398118	0.0770301281271263	0.0788301493178821	0.0794608830817211	0.0768971061375357	0.0771985752772514	0.0801561680386583	0.0753943746059846	0.0746217624382849	0.0738158425223131	0.0687017087853559	0.0701638781086096	0.0686057431593994	0.0674376386175401	0.0655463975547884	0.0568646101683484	0.0572490061126654	0.0569510916116422	0.0549628683141711	0.060398254984686	0.0597230088577531	0.0588294066658988	0.063451520860556	0.0642922265857913	0.0674621039938238	0.066998461985595	0.0623972638062068	0.0644229127343252	0.0634828707172851	0.0614276757348521	0.0649994318632451	0.0620141858768725	0.0603272583797834	0.0579041148130644	0.0582777023286773	0.057019669329151	0.0565949346782826	0.0536526429338051	0.0578075637701543	0.0629463077587622	0.0626670671045773	0.0667520008059033	0.064550016870575	0.0654044412090728	0.0679456763322421	0.0759710953970195	0.0761818872248306	0.0770903864443549	0.0756797233721441	0.0809994899059433	0.0811154859417565	0.0772517935750638	0.0828584198241547	0.0852699834271301	0.0896880788079146	0.0908277218770997	0.0852840135151063	0.0843877413854243	0.0814984105129645	0.0819995275362129	0.0827665798423448	0.0810737529349948	0.0805654567719243	0.084926792276899	0.0823709023024551	0.0815670686747779	0.0827771397883829	0.0823036311355218	0.0860915099964662	0.0837736228623068	0.0814036627682505	0.0791958192072612	0.078022220418435	0.0758709605266786	0.075197601065772	0.0722301799945423	0.0728550229128194	0.0698285834690844	0.0622696881877985	0.0616403000155785	0.057427490837535	0.0620175706634853	0.0656557425270697	0.0635015198719444	0.0661276778518902	0.0691373673034492	0.0710386539629228	0.0718247129544309	0.0678724363800576	0.0654887654952634	0.0665443237695993	0.0683422250853545	0.0677684156148721
0.038143310839262	0.0377550243888704	0.0374996540201199	0.0349852995452371	0.0315475521764567	0.0312689147775435	0.0339562617688782	0.036085961773994	0.0353738838956468	0.0366945682372351	0.0386886993967211	0.0385325810913486	0.0383089299001064	0.038850940958786	0.0372319214237711	0.0373004307367684	0.0398002793913805	0.0436356026486046	0.0445514229880514	0.0412579644293342	0.0396533418557974	0.0389119141257094	0.0374027070182245	0.0377695303918745	0.0387039474606904	0.0386620294975676	0.0377538477081468	0.0376578667306622	0.0357257310363283	0.0337652500481133	0.0294011660573648	0.0297425107653245	0.0323771632023672	0.034107951515314	0.0372868852001406	0.0335257868617406	0.0315463455494518	0.031397770582277	0.034269360151595	0.0349531350768262	0.0365835066894402	0.0357288667668061	0.0379958657557342	0.0398767676266912	0.0425528513829815	0.0417253713667274	0.0409233927091839	0.0359451176951592	0.0404353542383101	0.0421904048860724	0.0401673507318735	0.0447239458820475	0.0462479640869659	0.0462426361391666	0.0504302908293549	0.0505318173155039	0.0452620099525599	0.0451821376953814	0.0422100114026675	0.0460070768011091	0.0444138686577458	0.0403325399419564	0.043346293982932	0.0428541902548491	0.0422087536994194	0.0405463938590563	0.0357883458403894	0.0365530609163045	0.0385174059090031	0.0378939386375141	0.0420510100828186	0.0414833072174096	0.0438088337500221	0.0465273582609092	0.0471425636872298	0.0432996249948298	0.0447442962454973	0.0430099438476769	0.0436604944194222	0.0475810851039663	0.0500941221470874	0.0479906565736852	0.0465546388032136	0.0464814181826669	0.0446308576082633	0.0462803358061077	0.0443813289977068	0.0473194980165295	0.0447442117395118	0.0438084073316071	0.0407988169338015	0.0408348405370403	0.036417077502667	0.0354444495766272	0.0374133926547354	0.037307317216094	0.0378528262065925	0.039962669490621	0.0374578596740303	0.0347267145491692	0.0368441723363799	0.0393781005749388	0.0417801606679072	0.0429381976081392	0.0447487174147405	0.0455692634609079	0.0455378809556626	0.0447373958566349	0.0453306212435657	0.0410855969210472	0.0397814411315437	0.0454151073344351	0.0453282373468996	0.0431681725568929	0.04873874478861	0.0486146562132304	0.0487099496117269	0.0520672734160467	0.0489602622709703	0.05034666497252	0.047734282974424	0.0509063186302013	0.0519245299009246	0.0483649165821224	0.0497612743980286	0.0527716208766214	0.0507326239257735	0.0505455369419983	0.046270415317714	0.0417690417196834	0.0447253424547245	0.0460446317841396	0.0478842204277243	0.0456263504736263	0.0479029973671852	0.048754011570759	0.0492954713402691	0.0497060239603239	0.0483289335638905	0.0491181485171437	0.0483147309934703	0.0514352666660144	0.0549540260825467	0.0546011765803047	0.0517695374165032	0.0507448901317652	0.0494936269545018	0.0490325774593438	0.0504100900745704	0.0519861356459579	0.0503972445058681	0.0492045951868661	0.0458849317946167	0.0432045788153508	0.0422965186853725	0.0385863999022499	0.0402436546816887	0.0428489745953989	0.0455656404911012	0.0471038174304883	0.0450387517424318	0.0414673326181828	0.0417015135323597	0.0455269375685672	0.0461919612495925	0.0469537133745996	0.0483393241819581	0.050635998547372	0.0517055077627566	0.0515536436722403	0.050434328954802	0.0479352960186188	0.0449201125607795	0.0503952632963986	0.0522462949216455	0.0508654943991007	0.0524912006531	0.0561336291439599	0.0565690792798925	0.0602281232758502	0.0586893164918361	0.053462973260555	0.0553320147539289	0.054683967393947	0.0593147842649362	0.0556095651002376	0.0546045991399682	0.0563078784663408	0.0558654014326728	0.0539776226946001	0.052181778863085	0.0466071077717708
0.0251681507647899	0.025788837782722	0.0245652035835591	0.0246037299239935	0.0244734518533945	0.0253414810696424	0.0235179582603339	0.024416401885626	0.0274461445529037	0.0278140425838669	0.0318302917815302	0.0322731129691514	0.032025586996301	0.0303834507806403	0.0332123879494746	0.0348774020670467	0.0359897659023817	0.0354405595418483	0.0341005358356794	0.0348661825284901	0.0320956822382981	0.0333708889917731	0.030251963970745	0.0329341027791025	0.0332795866152622	0.0372579105546559	0.0356505517066486	0.0353269392697285	0.0353209338101858	0.0348583360368777	0.0360553773764849	0.0367068440350732	0.0373408890213158	0.0370821801900253	0.0356814400067742	0.0353209591052234	0.0352802489975548	0.0325241390725047	0.0307931395854133	0.0287937350452365	0.0272910200557097	0.0271128329107545	0.0272839112438752	0.0270099584416951	0.0289817333645543	0.030062430542396	0.030915727276314	0.0301969933747156	0.0340462372080453	0.0347138896731236	0.0349796432350277	0.0336037686779851	0.0378376386346006	0.0377410398377513	0.0350652870174824	0.0370286908137292	0.0360826618384755	0.0365167124626352	0.0341013864724388	0.0326344167658573	0.0292215882252213	0.027242846947234	0.0280262224480716	0.0312517637801472	0.0297989651593935	0.0283289014463124	0.0291419255049836	0.027443279779094	0.0274271745804149	0.0276858225727044	0.0288588588659658	0.0296504039999722	0.0333907692774405	0.0377164605576856	0.0372590730899035	0.0377745647318815	0.0379414877676112	0.0402946555614898	0.0411653224358291	0.0426432353499221	0.0414152459982532	0.0392918312352033	0.03819803066135	0.039141033006256	0.0374824390570514	0.0365912575134733	0.037628646914065	0.0388250013633822	0.0395858653059985	0.0386645019333512	0.0377056518981966	0.0370658764122434	0.0370758869556497	0.038956866792907	0.0390453389112871	0.0413089081893758	0.0408799097034154	0.0420811539158412	0.0390352835877934	0.0385751033195222	0.0351015780002564	0.0352398025177389	0.0314039220693932	0.0301555167697837	0.0320407351527798	0.0302573755507589	0.0309666547694994	0.0336980796509112	0.0363989959585601	0.0341460408385889	0.036074660734945	0.0389898969318426	0.0408935287027851	0.0396178726242676	0.0396178726242676	0.0444103386501754	0.0433549692457529	0.0423932685314108	0.044830257566838	0.043352838601277	0.0420064884377077	0.0420473826985446	0.0390051828159036	0.0358259851282851	0.035917590025243	0.0358637845189283	0.0378434925890244	0.0360573210636837	0.0333338718411291	0.0339451033604651	0.0347602097465097	0.0326020353475509	0.0351695778859197	0.0363493949095883	0.0360093999253815	0.0400663608521779	0.0413857196840496	0.0430672224860788	0.0425751327959567	0.043986409933803	0.0466251662287516	0.0501507095447132	0.046112276757298	0.0460763854410285	0.0447275172656577	0.0410398456364202	0.0421615647127277	0.0383518174812193	0.0434308159603248	0.0406466563590367	0.0466570128216522	0.0468385532176732	0.0488066977792568	0.045676469873616	0.0458870433698851	0.0478153498271926	0.0464586453568574	0.0496189075934075	0.0516789635257534	0.0517509186549986	0.0496583332414035	0.0477330017416087	0.0458017223129423	0.0428796522667743	0.0388028406653345	0.0352356435587469	0.0364195736265199	0.0343587569364327	0.0370651845870569	0.035854324019548	0.0385827100044513	0.0393081149459735	0.0391858331072038	0.0430350769405335	0.0430178817407521	0.0441634613251373	0.0432435246540755	0.0452740151169942	0.0474727068722491	0.046571400821784	0.048096173870678	0.0480500280435482	0.0461433332203901	0.0462082047346594	0.0432209002902755	0.0391749574593137	0.0389203530624894	0.0406543297900908	0.0409687483995443	0.039153453092228	0.0380923534297895	0.0368132838497382
0.0236227457304704	0.0227848607042102	0.0216092056055088	0.0216489282215426	0.0206323274710958	0.0220851260918496	0.0230575932564654	0.0246042279006327	0.0239295119094387	0.020321111598691	0.0204615014399512	0.0201337774715531	0.0187906483953375	0.0164556228573362	0.0168939661489569	0.0184770716975659	0.0204844727650917	0.0202355880557122	0.0199315886535309	0.0205562169283485	0.0205173273781562	0.0200234427044937	0.0193818117348554	0.0211429143931616	0.0232291530982414	0.0239140007631011	0.0250498548931731	0.02404532956217	0.0240812171255042	0.0256366161927329	0.0270516562356644	0.0257882355748982	0.0278887447609311	0.0299217288832869	0.0300999906423129	0.0324773290821451	0.0306974858449185	0.03028418671163	0.0277728445426932	0.0276940052836746	0.02769408152274	0.0275989873283351	0.0287194335538375	0.0280079924199717	0.0302218803332892	0.0272607365333365	0.0287752028795379	0.0270410933935543	0.0254769443906867	0.0257201974756256	0.0249972481463188	0.0263066630154633	0.0287499778991996	0.027920236243765	0.0273612931382597	0.0250221433791825	0.0244372766160144	0.0206549657543256	0.0221670744414289	0.0235782360044616	0.0276665757323866	0.0261823546447289	0.0267267456055462	0.0295404278652959	0.02522304092776	0.0264070940296845	0.026121758396938	0.0250088101464168	0.0261920344905267	0.0268133889138543	0.0271983569427871	0.0243375792038491	0.0231527690135115	0.0228165310786857	0.0225457747758233	0.0197968947681312	0.0212622210389911	0.0233474273100307	0.0234616675221172	0.0251394541922869	0.0246272818098593	0.0258318853734757	0.0256927773447583	0.0251837393044793	0.0232493552464499	0.0252200175061604	0.026022637841652	0.0277322828239793	0.0298856128896697	0.0275901972317672	0.0259448966208809	0.0286487530978726	0.0290540254280387	0.0292437723400893	0.0277820372897708	0.0320200207915223	0.0347535322853349	0.0360719443033831	0.0359764249338117	0.03777070783639	0.0340013549143373	0.034321883276622	0.0337533870081212	0.0308462570270137	0.0336051297220033	0.0344555480684788	0.0344539928328067	0.0356306804939218	0.0331080750239353	0.0333573346509944	0.0305071699605121	0.0288625597511913	0.0285869430380375	0.0281681506748676	0.0312291679677472	0.0322497603779582	0.0318054795086243	0.0324001372811597	0.0306467314452473	0.0268114977533552	0.0238843639503791	0.0261777858490538	0.0294417563891613	0.0320786074555751	0.0303989938420203	0.0306412128822416	0.0307385267161762	0.0288754465141107	0.0313050606766154	0.0293466500587213	0.0276389523196783	0.028880993760938	0.0304857780968595	0.0292636781461042	0.0252511152546704	0.0257338758190055	0.025311934967463	0.0244308768883181	0.0221918323278014	0.0244379872410057	0.0269251129243824	0.0267834786158047	0.0265533451506311	0.0256105533625012	0.0271372616963155	0.026602196034625	0.0274103382840871	0.0268556811488284	0.0281069483599592	0.0297738559097767	0.0315347539590217	0.0325746271116091	0.0294837300731571	0.0299196039974448	0.0314750030646735	0.0326262150970453	0.0315116982439671	0.032712609123002	0.0366153047053049	0.0358638336068246	0.0385916169886248	0.0378408179757404	0.0380725866585375	0.0360728790113155	0.0347279035170534	0.0336528608758395	0.0325121209095668	0.0347667905840582	0.0353464071000266	0.0349083049493886	0.0353110400454121	0.0344566692643704	0.0328045880141642	0.0300182842347742	0.029441288184355	0.0284428425789846	0.0305591137118849	0.0329751149885034	0.0343355232506635	0.0326367366858452	0.0333234626136124	0.0305743006229001	0.0266814116614431	0.0251113447064326	0.0288918522031744	0.0322252797175702	0.0323816663662161	0.0322412096621736	0.0344736033515395	0.0314223526492471	0.0299653838718054	0.0309091469441007
0.012816850898629	0.0135345235409401	0.011943596869765	0.0117440567978044	0.0105892153964131	0.0141183282973743	0.0143792066296104	0.0144090697623672	0.0154648107355025	0.0152836383737073	0.0151730602739391	0.0155652593031321	0.0155652593031321	0.0146333933087941	0.0160288166464685	0.0179699533617572	0.0179699533617572	0.0183772726015671	0.0178307703148792	0.0194504770538999	0.0159330624274535	0.0152163226697733	0.0151963005079045	0.0181659930821373	0.0212654526072759	0.0237892910837273	0.0238251141225952	0.0232498629966336	0.0235821374556261	0.0245256550023768	0.0215161509956941	0.0234302230641526	0.0232850225904543	0.0265993805668981	0.029332349038154	0.0271439992759906	0.0261078229137424	0.0221464050666889	0.0217857180934599	0.0196386623842376	0.0186276162547021	0.020429749574949	0.0212867703861949	0.022615133324482	0.020493294126922	0.0165614301460168	0.016092905320032	0.0170643573080459	0.0173248677473647	0.0165590421352555	0.015525466520866	0.0153654342091929	0.0173352721626259	0.0164894766008089	0.013665060983021	0.0153431029774741	0.0139260636087853	0.0150958105262112	0.0151055675595045	0.0152765632273492	0.0139297206996364	0.0133671833734585	0.0143177846002224	0.0151225328295534	0.013403467059874	0.0142816459796842	0.013834480498648	0.0130357505389558	0.0148870460759132	0.0150409133438575	0.0166494693076529	0.0175113902100649	0.0205270703419407	0.0197958052242405	0.0201880042534335	0.0179963123907642	0.0190611776539552	0.0197361937905947	0.0223538381425638	0.0228253180293015	0.0223827094278187	0.0233264763844799	0.025535371867462	0.0212497045453358	0.0201818520463675	0.0188346892695233	0.022467137648459	0.0270362092420563	0.0263841938016616	0.0275660105931904	0.0275510075629553	0.0285374628271122	0.0287826722171551	0.0247759462173314	0.0260693312678578	0.0264977475072066	0.0303531280205374	0.030836290566378	0.0302401621021314	0.025507210847671	0.0240150101891081	0.0224864471129385	0.0213059222497785	0.0216846296692512	0.0226980511063782	0.0250183884596028	0.0251526851715984	0.0228865911111496	0.0179809638052579	0.0191953410996805	0.0201186073437023	0.0202237426114859	0.0191238676619379	0.0180944162208239	0.0197385715476282	0.0195500681437791	0.0166121626883935	0.0148981749682844	0.0144235591342939	0.0160014741873561	0.0156843664777158	0.0153109811892207	0.0154591486015701	0.0142574446680345	0.0142574446680345	0.0165571850849466	0.0175655157176467	0.0164992950869189	0.0180437560259583	0.0173076960324053	0.0197993989843031	0.0204305432793099	0.0197630586525229	0.0236231940117624	0.0240627086678991	0.0258999582010384	0.0264267881631197	0.0255778965564073	0.0249365199712109	0.0241449422220469	0.026067932571975	0.0267978199946047	0.0249990265999693	0.0250797880219884	0.0270628750184042	0.025433901166414	0.0231123770728123	0.0229337388900823	0.022573596163275	0.026809559329234	0.0298543464438813	0.0305464467375263	0.030125062879509	0.031806389844053	0.0330612355052806	0.0303163506332875	0.0299271440158207	0.0303005293043159	0.0324142405443403	0.0345465441595331	0.0330066237035375	0.0300692338258053	0.0256493326229524	0.0245853878840663	0.0224200480737687	0.0225074105454541	0.024191512448312	0.024910815069873	0.0246732704454418	0.0250555257785703	0.0211683943732053	0.0193860271287132	0.0223919077453948	0.0228053385422412	0.0214951219693147	0.0204615463549253	0.0195702489255519	0.0222713519966852	0.0187907580385379	0.0169373182612809	0.0168057771232599	0.015354138199189	0.0171124410681195	0.0169464300808443	0.0164097498283339	0.0148199819942123	0.0142574446680345	0.0142574446680345	0.0160127941241294	0.0160943561832495	0.0170805836573027	0.017596590544922
0.00638212912744771	0.00681486991554729	0.00577540148977697	0.0062425042425577	0.00675707686746704	0.00726691231464243	0.00836654209693082	0.00836654209693082	0.00929443007977489	0.0100752587221192	0.00876760011769366	0.0103040693816616	0.012053564499323	0.0113687168344633	0.0131575955121796	0.0133208804717174	0.0117724999672007	0.0129455276387381	0.012037398248709	0.012658085266641	0.0116370117547437	0.0108301554909878	0.0104964923296797	0.0110920989326293	0.010949518306953	0.0127780609525797	0.0109004306474286	0.0124098482144846	0.0141404565181558	0.0144151902776503	0.0144253869502229	0.0146784730522918	0.0138169298639925	0.0149516955916167	0.0158328930488676	0.0144816458242945	0.0133600389252085	0.0157491426667614	0.0164365787923363	0.0169379078105141	0.0154530763994628	0.0150466226475597	0.0161086498109326	0.0136620786952273	0.0143933438129276	0.0139434257501631	0.0138852760584089	0.0136247656190901	0.0141828175936455	0.012949309780217	0.0135732238688175	0.010211915598264	0.00944874357965528	0.0097835094784112	0.00980305403323063	0.00949129184539034	0.00876002672769012	0.0087165556480268	0.00991560330295734	0.00991560330295734	0.0109347124472079	0.00884975141496419	0.00760072165091283	0.00815402817775153	0.00919394690611093	0.00966204180981347	0.010292429522132	0.0100993262266863	0.0113648022954852	0.01170879145615	0.0108023371670959	0.0119953028537977	0.0119783083388919	0.0121132619425834	0.014486068396888	0.015594186929353	0.0161953968703421	0.0162763093332378	0.0142686018304419	0.0149643665102482	0.0153046589010862	0.016282692597788	0.0154489411252404	0.0158622839419539	0.01472176451689	0.0142631447118469	0.0148075356726641	0.0162347631360027	0.0171863272478102	0.0153294630943483	0.0180647572448439	0.0199827176878663	0.0187810684971189	0.0201813277028797	0.0204473939599011	0.020720616499226	0.0202934731800586	0.0201942928366578	0.0190085252906441	0.0192202066334246	0.0194672328582659	0.0184004425995207	0.0186567717884994	0.0182963264804857	0.017793599709863	0.0167354143473234	0.0145163487214911	0.0147976957764269	0.0141770087584948	0.0140318701643176	0.01485858309296	0.0148672622782964	0.0145701389820058	0.0137770992385913	0.0112689187262649	0.0110663457107756	0.0107262468688984	0.0110491467024223	0.0107373845145821	0.0093212717320221	0.0102546212298681	0.011161695972149	0.0119262081180538	0.0130350271558912	0.0110950572819993	0.0108912678651167	0.0114445743919554	0.0118638061023828	0.0128752998159808	0.0133898724408902	0.0138997078880655	0.0149993376703539	0.0160622970884314	0.0158339251349728	0.017421610041073	0.0154121092568819	0.0148622151957137	0.0170305864943993	0.0162642715952204	0.0191566718572282	0.0175383568470442	0.01658077345094	0.0180247943176463	0.0176404597550539	0.0192805930368875	0.0177817266229927	0.0167947065729558	0.017241872053992	0.0173276432097662	0.0179163277017901	0.0200671589501973	0.0197608168897421	0.0196568774253313	0.0211941120020267	0.0221671337371099	0.0217044155192324	0.023653295413611	0.0221910873692485	0.022448713668143	0.0227292462693306	0.0213779990447575	0.0214895061309349	0.0228025594881025	0.0218114635787398	0.0212555084713672	0.0211540190751792	0.0202569569676979	0.0201443021480857	0.0170970661763172	0.0178283312940174	0.0173784132312529	0.0166125876191437	0.0170597531001799	0.0172165238799971	0.0146969792511019	0.0151040131408896	0.0143628887449607	0.0129148690614923	0.0132496349602482	0.0133544538495144	0.0130426916616741	0.0123114265439739	0.0109638230744112	0.0128042473145381	0.0123570818335019	0.0144143470677977	0.0140110138923631	0.014200925166367	0.0134199198112157	0.0133993236778351	0.0139935315027982	0.0147681250203307
0.0139577931199966	0.0137571083123644	0.0134745538807681	0.0134745538807681	0.0128331772955716	0.0119152430142275	0.012795781237741	0.0119302900733814	0.0111948243142033	0.00987066976243519	0.0100046905771636	0.00959156730914606	0.00884919024838701	0.00907196691617596	0.0132790298188565	0.0139638774837163	0.0168365898958141	0.0179841068758273	0.0158822167783185	0.0160991797026395	0.0169138239055775	0.0178949395984452	0.0169388192763616	0.0139397129198766	0.0136116703413917	0.0145019316359676	0.0142553600936918	0.0118825536393872	0.00974907407690681	0.00892565841849291	0.00884599393744791	0.00898920759174013	0.00797950478452603	0.00854867886445837	0.00855779352354212	0.00900495900457836	0.00900495900457836	0.00803398316404751	0.00734913549918778	0.00662569326233671	0.00812595931262743	0.00803512990373958	0.00902151865956474	0.0103534486333282	0.0113839634041582	0.0105771071404024	0.0116696107344608	0.0125064557507743	0.0131486575579971	0.0123678289156528	0.0138275902136152	0.0138275902136152	0.0124083917303747	0.0118985562831994	0.0104856916136024	0.0106723607772463	0.0103731111241165	0.0101039170034871	0.0113879415241312	0.0117481508666363	0.0117428275790863	0.0134855915904158	0.0139577931199966	0.0139577931199966	0.0137571083123644	0.0134745538807681	0.0128331772955716	0.0113145781581642	0.012795781237741	0.0130944380368567	0.0125430304267992	0.0105241218449862	0.0117624016891015	0.0115073418089966	0.0118714446401608	0.0122104538014335	0.013486658275254	0.0172028306980809	0.019408511294035	0.0218585511566102	0.0202834910211826	0.0202834910211826	0.0197397261493172	0.0200609812098274	0.0210420969026951	0.0178598649182834	0.0146389824513582	0.0162082015600125	0.0151961904401087	0.0159060610794854	0.011883886651885	0.0108044232727708	0.010862572964525	0.01078290848348	0.010478956656736	0.0111704410753502	0.0109327588915267	0.0109418735506104	0.0113890390316467	0.0105274958433474	0.00971038727076076	0.0090515672273125	0.00902663366905928	0.00997399931339137	0.0106006972864969	0.0116916531869168	0.01229231804298	0.0125159765500542	0.0120688110690179	0.0134738578472304	0.0139981596793898	0.0146403614866127	0.0138595328442683	0.0153192941422308	0.0156201974283881	0.0140530160165179	0.0133500219862976	0.0124532771900379	0.0126863638065224	0.0121179200327632	0.013229016120407	0.0131414668779803	0.0129552976321565	0.0153218471986103	0.0165748488980569	0.0167030612669729	0.0165023764593407	0.0152770399213668	0.0152770399213668	0.0134064247104934	0.0138360938987119	0.0142545611251547	0.0146118687540523	0.0136863467653346	0.0130656597474026	0.0136805049908134	0.0135702698777958	0.0131718819777016	0.0135586555890789	0.016719136287511	0.0191711211855756	0.0219587696351353	0.0225413291231819	0.0219788557519262	0.0221958186762472	0.0215648874181391	0.021135658922639	0.0212608727719482	0.0175660017356569	0.017237959157172	0.018835896372103	0.0162922473724268	0.015227217063032	0.0123545046509342	0.0132848541468993	0.0137320196279355	0.0122425385176233	0.0123006882093774	0.0128698622893098	0.0136061253240112	0.0132259239509046	0.0128115462436416	0.01270211359141	0.0105287613638509	0.0110912986900287	0.0123488791225734	0.0116373626957536	0.012559590804651	0.0133646908163332	0.0138853701399878	0.013078513876232	0.0130161760688992	0.0139981596793898	0.0140778241604348	0.0138595328442683	0.0159820499469337	0.0159639035815732	0.0157699982292135	0.0152601627820381	0.0143916890732584	0.0138935105720426	0.0128629958012126	0.0133250667982834	0.0140647003581102	0.0141624443976768	0.0149639773738826	0.0174380065029124	0.0179102080324932	0.018167388898852	0.0171397586988061	0.0161969765924286	0.0163112406288557
0.00830878418676715	0.00779894873959176	0.00850662465994682	0.0083634110056546	0.00639055533168112	0.00719741159543695	0.00703387335552989	0.00859673684886044	0.00748980856186531	0.00824544918348887	0.00960756639621701	0.0100833945399088	0.00818435212062004	0.00818435212062004	0.00747667620026499	0.00699920283662519	0.00752603279870642	0.0080276903146451	0.00920100426754733	0.00972783422962856	0.00983009281904534	0.00947972452758787	0.00922572584732476	0.00869889588524352	0.00820550674281573	0.00767867678073449	0.00825996535111827	0.00967705660777543	0.00981298245039716	0.0108945562134971	0.00831887142504955	0.00767749483985313	0.00715066487777189	0.00636421878993995	0.00648577642185508	0.00604041369409303	0.00648757917512927	0.00753093874258383	0.0076573260925551	0.00810608134991826	0.00691649558313406	0.00758860996364363	0.00657201768967952	0.00657201768967952	0.00701918317071576	0.00807133481712981	0.00749004624674603	0.00721263103022793	0.00710945470985651	0.0074030243344093	0.00682173576402552	0.00528487873890677	0.00528487873890677	0.004985629085777	0.00533202501538086	0.00698179958063999	0.00731885935744283	0.00626670771102878	0.00771762515868873	0.0078869918209639	0.00712422125246077	0.00691297159165448	0.00933884397302444	0.00965060616086473	0.0106725003720488	0.0105292867177566	0.00983890162748791	0.0090662664909585	0.00966443479402124	0.00934228053325294	0.00979821573958837	0.00979821573958837	0.0104723891268927	0.0124007347492504	0.0107046891918353	0.0104506905115722	0.00943125240337681	0.00812972530173259	0.00865655526381383	0.00865655526381383	0.0080276903146451	0.0104630678706758	0.0103665391416527	0.0117342737998684	0.0108026169380272	0.0109826243136728	0.00986854815331295	0.00934171819123171	0.00992300676161549	0.0111928155037975	0.0118555713085005	0.0121033935990527	0.0124380156855835	0.00972008369795649	0.00919325373587525	0.00701949847840824	0.00712331368515222	0.00671804135498611	0.0068671266227354	0.00732919761980618	0.00732919761980618	0.0084856287975244	0.00819896616683886	0.0083442505852672	0.00698366915063827	0.00732765831130309	0.00732765831130309	0.00814212777389365	0.00824568686836959	0.00873907601079739	0.00786509533148008	0.00815866495603286	0.00838423264940491	0.00633754017711077	0.00684737562428616	0.00517179833160081	0.00579248534953283	0.00742135186284149	0.00778865584439582	0.00775841163964433	0.00741755313544942	0.00803109228001676	0.00834985892405491	0.00717543689459303	0.00838258366011328	0.0101447373517366	0.00994666409240147	0.0114783937507609	0.0119558671144007	0.00998301144042725	0.0112997031513585	0.0107688609298971	0.0123317244232276	0.0112247961362325	0.0119804367578561	0.0126797981658812	0.0131135575228021	0.0118772709082163	0.0110713775295042	0.0106144767474867	0.00931294964584247	0.00921909258999169	0.00943819567433398	0.0103842286116572	0.00964558250493948	0.0118193377624065	0.0115411705044227	0.0111111555839419	0.0110517724974228	0.00990425551740956	0.0104855440877933	0.0110668326581771	0.0117741040741813	0.0124368598788843	0.0124924742938861	0.0109427488535367	0.00977454230625903	0.00888428101168311	0.007704602255536	0.00677249996328866	0.00738079715968908	0.00744841519311918	0.00849177476057375	0.00803687354016124	0.00921689391522462	0.00840340132245785	0.00876859419250097	0.00858575339108455	0.00858575339108455	0.00903291887212078	0.00950378194815106	0.00950378194815106	0.00880758532379465	0.00912319041126154	0.00936230142751178	0.00946148177091255	0.00863230066614886	0.00790103554844863	0.0068461452736953	0.00666571124121793	0.00794818182492273	0.0086525455832799	0.00760039393686584	0.00905131138452579	0.008557922242098	0.00845790747829784	0.00824665781749155	0.0101457002367803	0.00963490190456118	0.0106543400127565	0.0113351800964687	0.0112654820241321
0.00705093305965987	0.00563535414769805	0.00661733227682914	0.00699687972443527	0.00755941705061312	0.0081038080114304	0.00840716329013495	0.00813660651462498	0.00608554805541559	0.00662993901623287	0.00662993901623287	0.00572937863085054	0.00667499000077009	0.00729837202871568	0.00674619432378093	0.00572527029097838	0.0056248039618713	0.00551315378915361	0.00599574580757546	0.00657703437795925	0.00710282814096441	0.00655843718014713	0.00655843718014713	0.00655843718014713	0.00662440004542836	0.00748055319408593	0.00787684206049111	0.00714557694279089	0.00752512439039702	0.00830595303274137	0.00819157637985279	0.00694753200476604	0.00602953921256787	0.00653937465974326	0.00743922108658085	0.00805990810451287	0.00708904559844527	0.00644766901324885	0.00532150844053093	0.00481167299335554	0.00443212554574941	0.00399608217009011	0.00563583182842329	0.00563583182842329	0.0062565188463553	0.00660822658747919	0.00715788962515295	0.00778921244398824	0.00863105566145667	0.00917544662227394	0.0101477471930808	0.0115212573182717	0.012539468588995	0.0128616228497633	0.0120547665860074	0.010116674954332	0.0113497889395954	0.0105303145380671	0.0119807081412132	0.0109939298563576	0.0104320314009326	0.00973766389279887	0.00985074430010483	0.00849074325258617	0.00869264886267987	0.00903596316869382	0.00903596316869382	0.00952220443775693	0.00982555971646148	0.00840716329013495	0.00793407140613225	0.00729269482093583	0.00729269482093583	0.00731514270649636	0.00794148226141736	0.00794148226141736	0.00728142146672798	0.00699176255162565	0.00745383354869643	0.00634690526170129	0.00599881740745653	0.00784352663860652	0.00836932040161168	0.0078249294407944	0.0078249294407944	0.00855619455849463	0.00574342607186456	0.00793695373351237	0.00911230108949931	0.00918939574857512	0.00799605963380412	0.0102812625255283	0.0116623625138734	0.0100476682993268	0.00899374966450686	0.00950358511168225	0.0100479760724995	0.0104034315385198	0.0102928534387516	0.00868061434748762	0.00727772814208815	0.00697316520438592	0.00646332975721053	0.00484088267018926	0.00406595413796789	0.00616266179050452	0.00616266179050452	0.00574668339917991	0.00666450048272516	0.00765127876758075	0.00789979054375644	0.00917544662227394	0.00998230288602977	0.0108105029977838	0.0121840131229747	0.0128616228497633	0.0120547665860074	0.011006936248908	0.010116674954332	0.0107291019216634	0.0104394851291792	0.0114873189987854	0.00976927559622962	0.00915637532241509	0.00985074430010483	0.00878271616523576	0.00802989305797691	0.00901187118710799	0.00903596316869382	0.00959850049487167	0.00952220443775693	0.00982555971646148	0.00828952687215256	0.00674830386011855	0.00729269482093583	0.00729269482093583	0.00699587089149781	0.00794148226141736	0.00751143648333136	0.00664004488153156	0.00699176255162565	0.00689129622251857	0.00634690526170129	0.00659948226351977	0.00745132760941351	0.00889615036369292	0.00835175940287564	0.00835175940287564	0.00848235966451262	0.00788249512520982	0.00858490464358788	0.00920639026348096	0.00898496059295613	0.00936450804056226	0.0108080924876096	0.0111557868317918	0.0106194183770601	0.0102282555469431	0.0102112610320373	0.0113369405632384	0.0123130830471907	0.00996957883822645	0.00965781665038616	0.00826212969512476	0.00775229424794936	0.00691067580327245	0.00693670342468393	0.00702343598373822	0.00784382531043637	0.00775683640801333	0.00805918755069578	0.00884672656364197	0.00876946293658925	0.0102319931719897	0.010776384132807	0.0117486847036139	0.0131221948288047	0.0137849506335077	0.0136557040965405	0.011987186741509	0.0117176124648651	0.0111821997813799	0.0123397178754704	0.0133126381149767	0.0111012055699931	0.00963867533459264	0.0106712214849894	0.0103790295621292	0.00927013857162798	0.00989082558956	0.0102341398955739	0.0102341398955739
0.00451401935242624	0.00451401935242624	0.00261224291471461	0.00422682302960665	0.00383462400041364	0.00345507655280751	0.00394846569523531	0.00328570989053234	0.00328570989053234	0.00328570989053234	0.00294172072986752	0.00210796925731984	0.00254071004541942	0.00380413070618563	0.00380413070618563	0.00218955059129359	0.00258174962048659	0.00258174962048659	0.00258174962048659	0.00286918912040314	0.00286918912040314	0.00286918912040314	0.00286918912040314	0.00336257826283094	0.00336257826283094	0.00226708167002839	0.0029406345987373	0.00360339040344026	0.0036583568552835	0.0036583568552835	0.0041358302189233	0.00429757781185393	0.00509254154505195	0.00555461254212273	0.00611714986830058	0.00562376072587278	0.00611714986830058	0.00611714986830058	0.00602903305603889	0.00503261409002781	0.00458544860899157	0.00543697080492946	0.0052923901774169	0.00515667020589776	0.00599527953775677	0.0059519899485243	0.00657267696645632	0.00721728640579871	0.00776167736661599	0.00774576158782799	0.00931694561264765	0.00846450780144531	0.00998673679155081	0.00951476204321906	0.0100212338173211	0.0100559959982421	0.0084224229331851	0.00908517873788807	0.00804571031211774	0.0068385635465975	0.00718255270726232	0.00721945031682882	0.00710264223570952	0.00628709883251343	0.00476486984240792	0.00438532239480179	0.00560770348050082	0.00478099055185845	0.00431891955478768	0.00469394385332979	0.00469394385332979	0.00520377930050518	0.00485979013984036	0.00485979013984036	0.00393813923933669	0.00408832559583989	0.0053517462566061	0.0053517462566061	0.00412936517090706	0.00412936517090706	0.00412936517090706	0.00491019381325141	0.00387241371000633	0.00387241371000633	0.00336257826283094	0.00385596740525874	0.00385596740525874	0.00292983747473136	0.00215980595639295	0.0029406345987373	0.0036583568552835	0.0036583568552835	0.0041358302189233	0.00386483702375434	0.00509254154505195	0.00509254154505195	0.00555461254212273	0.00592546606894403	0.00592546606894403	0.00641885521137183	0.00592546606894403	0.00677790388014637	0.00488715395206282	0.00488715395206282	0.00605374103349435	0.00635076185007479	0.00675663039383422	0.00675663039383422	0.00733402782253376	0.00799678362723673	0.00767693191880491	0.00772793373719439	0.00896104772245775	0.00932942564461761	0.00934293472228982	0.0108259297521631	0.00964151482009801	0.00959392500117136	0.0084224229331851	0.00908517873788807	0.00846449171995605	0.00738295450741478	0.0068385635465975	0.00707090253454462	0.00725282859221273	0.00671983962061301	0.0063010582127747	0.00481806318290137	0.00643264329779341	0.00566089682099427	0.00521373133995804	0.00408890453818429	0.00596043611397706	0.00596043611397706	0.00647027156115245	0.00612628240048763	0.00485979013984036	0.00520463149998396	0.00618549772915378	0.00618549772915378	0.00457091761426175	0.00535531567264775	0.00535531567264775	0.00535531567264775	0.00604802750273041	0.00466988506936544	0.00466988506936544	0.00416004962219005	0.00465343876461785	0.00422069797651826	0.00246388817332426	0.00295727731575206	0.00440086176279937	0.0044558282146426	0.0040636291854496	0.00454110254908941	0.00470285014202003	0.00541469580582025	0.00587676680289103	0.00587676680289103	0.00697888544741255	0.00747227458984035	0.00747227458984035	0.00697888544741255	0.00638773881156758	0.00594057333053134	0.00679209552646924	0.00710716041196287	0.00697144044044372	0.00781004977230274	0.00702582451446366	0.00806529294023399	0.00914264316767596	0.00816067452529397	0.00863814788893377	0.0102093319137534	0.00935689410255109	0.0108791230926566	0.0104071483443248	0.0104664546373906	0.0100266657892709	0.00885516372128468	0.00951791952598765	0.00895592446385713	0.00774877769833689	0.00711563511008484	0.00707090253454462	0.00691475855265643	0.00719731298425281	0.00567508399414731	0.00529553654654118	0.00651791763224021
0.00175654220298551	0.000653094620718316	0.000653094620718316	0.000653094620718316	0.000653094620718316	0.000653094620718316	0.000653094620718316	0.000247822290552212	0.000615126272106534	0.000615126272106534	0.00102039860227264	0.00102039860227264	0.00160168717265642	0.00135386488210421	0.00252645613398256	0.00323413205433762	0.00323413205433762	0.00358958752035793	0.00358958752035793	0.00358958752035793	0.00358958752035793	0.00322228353880361	0.00322228353880361	0.00281701120863751	0.00281701120863751	0.00223572263825372	0.00164441995675915	0.00297810618259621	0.00227043026224116	0.00227043026224116	0.00191497479622085	0.00228227877777517	0.00228227877777517	0.00228227877777517	0.00228227877777517	0.00228227877777517	0.0026618262253813	0.00309456701348089	0.00309456701348089	0.00198644848101587	0.00117959221726004	0.00117959221726004	0.00234779876453769	0.00254303210916123	0.00254303210916123	0.00254303210916123	0.00296181351699953	0.00369153342963215	0.00369153342963215	0.00331198598202602	0.00287924519392644	0.00352062177912285	0.00398269277619363	0.00398269277619363	0.00398269277619363	0.00225194890273812	0.00225194890273812	0.00265722123290423	0.00223843982506592	0.00179127434402968	0.0015087199124333	0.0015087199124333	0.0015087199124333	0.00111516561778909	0.000653094620718316	0.000653094620718316	0.000653094620718316	0.000653094620718316	0.000653094620718316	0.00134598267212403	0.00134598267212403	0.00232492573655711	0.00232492573655711	0.00273019806672322	0.00273019806672322	0.00306366434655479	0.00357349979373018	0.00483692045449639	0.00554459637485144	0.00554459637485144	0.00590005184087175	0.00590005184087175	0.00480189145929993	0.00443458747774561	0.00382294839486685	0.00382294839486685	0.00341767606470075	0.00379722351230688	0.00270609949474771	0.00262463226042852	0.00264997770984729	0.00264997770984729	0.00264997770984729	0.00229452224382698	0.0026618262253813	0.0026618262253813	0.0026618262253813	0.00339111791672258	0.00386859128036238	0.00424813872796851	0.00430133206846197	0.00490199692452521	0.00379387839206019	0.00298702212830436	0.00298702212830436	0.00415522867558202	0.00435046202020555	0.00435046202020555	0.00476924342804386	0.00476924342804386	0.0047696716493352	0.0042921982856954	0.00391265083808926	0.00347991004998968	0.00398269277619363	0.00447608191862143	0.00447608191862143	0.00330787537134377	0.00274533804516592	0.00315061037533202	0.00273182896749372	0.00273182896749372	0.00228466348645748	0.0020021090548611	0.00314716487174162	0.00339498716229383	0.00229153958002663	0.00229153958002663	0.00179815043759884	0.00179815043759884	0.00179815043759884	0.00139287810743273	0.00249103848900456	0.00285834247055888	0.00346998155343763	0.00346998155343763	0.00387525388360374	0.002482375776171	0.00306366434655479	0.00423625559843314	0.00554459637485144	0.00554459637485144	0.00554459637485144	0.00590005184087175	0.00590005184087175	0.00443458747774561	0.00443458747774561	0.00382294839486685	0.00341767606470075	0.00341767606470075	0.00412614909366249	0.00295355784178413	0.00386383590106949	0.00407002730876207	0.00407002730876207	0.00371457184274176	0.00408187582429608	0.00408187582429608	0.00408187582429608	0.00408187582429608	0.00481116751563736	0.00528864087927716	0.00566818832688329	0.00481116751563736	0.00430371383923558	0.00298702212830436	0.00298702212830436	0.00415522867558202	0.00435046202020555	0.00435046202020555	0.00435046202020555	0.00476924342804386	0.00521640890908009	0.0047696716493352	0.00391265083808926	0.00347991004998968	0.0041212866351861	0.00398269277619363	0.00447608191862143	0.00330787537134377	0.00274533804516592	0.00274533804516592	0.00315061037533202	0.00273182896749372	0.00228466348645748	0.0020021090548611	0.0020021090548611	0.00314716487174162	0.00275361057709741	0.00229153958002663	0.00281836954210787	0.00232498039968008
