1.1259504354459	1.16031075353233	1.14494457066102	1.1479863080223	1.13898710842694	1.14205938611819	1.13737933620453	1.1219205287722	1.1011180509771	1.11618202781658	1.1034617444182	1.1149773098122	1.13702362351416	1.11379302931555	1.15428484307143	1.19381566474418	1.17023324195012	1.16908763887427	1.15826332505721	1.16722248268911	1.18074242794992	1.17921482393747	1.19149599426492	1.17579807490759	1.1716995287535	1.19163613894797	1.16694950394221	1.12181574966427	1.1277406124077	1.13133976119528	1.15753780081606	1.18875603171155	1.18050348887717	1.18506430209715	1.20426053135394	1.18522299862662	1.18719193014261	1.17688087734191	1.18824882730892	1.22299720429056	1.21059859893779	1.24303888468071	1.23639641793582	1.22087001920529	1.23357665618871	1.21348649346117	1.19432387470819	1.19058416497441	1.16750411854065	1.17509122706787	1.1798186243208	1.14054851433063	1.13480492943737	1.10186087957609	1.1078081290211	1.08424391745126	1.07371450972685	1.08642455904247	1.10349155873262	1.10523615391169	1.12999697484514	1.10232817013775	1.09749570003879	1.10107370033998	1.11402798695274	1.1361069386951	1.13848910377501	1.1664038947453	1.18155946922459	1.15331299444501	1.16740031136465	1.145570944856	1.16472226775036	1.20167494246185	1.21960584187997	1.22264427945684	1.19635008206626	1.20641052333474	1.19398558889255	1.19529917684668	1.22662051114643	1.23891605173653	1.22147580957264	1.24307232846798	1.22347558610095	1.2084707299681	1.18249446600576	1.19319464782452	1.19623831797985	1.18016604026519	1.16879538962805	1.1690371845448	1.16638732631596	1.15369949667835	1.17113209890082	1.17761408051992	1.20239787322385	1.18928114149271	1.20024246203537	1.21162463012062	1.20621818795215	1.24167709878634	1.22178075946404	1.21868472184098	1.20752487414455	1.20540767391248	1.21645804799815	1.19437207256261	1.17355754892998	1.17455042753807	1.16813849399372	1.18366063374062	1.20659575764821	1.19343947894708	1.22377835870908	1.27241514757649	1.26104718515866	1.27178375406324	1.25350601836174	1.2519148870594	1.26297827444163	1.27146376103944	1.28038506471308	1.26600612863525	1.25823669160465	1.27282313654075	1.25915309515553	1.21522412141301	1.22481475182162	1.2013934332362	1.22684156370563	1.25957617589509	1.25493652190771	1.26037644401559	1.27865339906855	1.2716609172708	1.25772461847143	1.25874329209873	1.27755084742488	1.29149971165459	1.27815491561906	1.3093930546111	1.30751104070282	1.28734566687547	1.29604284112008	1.27473600200074	1.25085569705147	1.25771487458811	1.21379810389676	1.23376766816247	1.23062071315311	1.20165220823165	1.18475966384042	1.15788665433501	1.1574811349219	1.1471277750158	1.12161144713412	1.13721643507446	1.15010811842849	1.1598277500708	1.18194501739123	1.149503771626	1.14071848866707	1.13970767508043	1.1458667281645	1.14801600490782	1.15287608037022	1.16344617809912	1.17876694151292	1.142770225054	1.14146364057923	1.13139842253999	1.12208608658575	1.14867597418514	1.17502807338471	1.17765080465455	1.14316622955822	1.15006571830006	1.1443744655542	1.14704336723417	1.1725974306786	1.19471802878716	1.17582447394419	1.18460933198318	1.17033427967582	1.15475991477403	1.12912805895944	1.13471564475122	1.13609853490582	1.12338735142655	1.11267898722672	1.11520747455676	1.11406796976763	1.08118010311577	1.11624359872234	1.12136413964477	1.15069084811543	1.13808360261067	1.16025806691372	1.17109105343925	1.16230312872001
1.0255683586582	0.999721521284525	0.994302692829799	0.99049186776836	1.0133053000779	1.04113616636038	1.03661419508875	1.05585609615542	1.02834755203754	1.03247007092535	1.02722220813115	1.03546004991089	1.05025261625261	1.07855458094493	1.08015532627079	1.09759373815681	1.07965941680582	1.05544139296271	1.02717023868746	1.01448545664565	1.00429523538851	1.02659981693809	1.00283030997544	1.02666048163325	1.01490811715177	1.02856456844283	1.02953914819165	1.01947020363304	1.01350777665759	1.03010099456726	1.03476696166659	1.02161206460594	1.02557013160975	1.03670039246566	1.03538229251363	1.00959075703312	1.01112132588246	1.01364371870676	0.997616067753848	1.00328655368338	0.990556258855609	0.996164904631603	1.00352486525102	1.01195724788797	1.02321570842536	1.02269481827062	1.00212214881612	1.01068157707112	1.02865884993425	1.02438419203522	1.00876295914643	1.01929393697898	1.03193508921763	1.03649857469846	1.03560968893266	1.02548493360732	1.02943656324881	1.01140700514034	1.04073142873283	1.05275075994656	1.02417471569006	1.05089203831111	1.06544201312548	1.06971260333148	1.05982897318636	1.05056405220729	1.03040635483413	1.02679434849659	1.03309760246642	1.05968966938014	1.02704369399931	1.03433223438502	1.0490507382164	1.05108181437575	1.033036044626	1.0163563035182	1.02581429270113	1.03380445807114	1.05640429977705	1.06079839789779	1.06645521066952	1.04669592822517	1.05325826310221	1.05810791677775	1.05628612436239	1.04847176283294	1.05107893717874	1.07142477455501	1.07841753764423	1.09200623123938	1.10866291402995	1.10899587472115	1.11821725875124	1.10610201782079	1.13519755045961	1.14521948761959	1.15394257474924	1.17074158825048	1.1727012389575	1.16110309648854	1.14799159289058	1.11760489315524	1.10219347444668	1.09313365931512	1.09611727356174	1.12944889629469	1.14180732951603	1.15311678897008	1.13425905719483	1.12933982014207	1.12116036811897	1.13839394245386	1.15272027664037	1.16845899028228	1.17844102098085	1.19433093902403	1.1726560734921	1.15031603455515	1.10357610898117	1.10391501639282	1.10428749180783	1.09955668651376	1.09637794014644	1.10518950539803	1.09804237216103	1.10109502939165	1.11162879456564	1.09956626004301	1.10198336752828	1.09639071794592	1.11575127798852	1.09809718042473	1.09188066189947	1.10021084282084	1.10418986434222	1.07269547788223	1.07261796899552	1.08050843590422	1.0564483918468	1.06025095037185	1.05622862878314	1.05371046695554	1.0607888797251	1.06952205288589	1.09127346483694	1.08123875596825	1.06999923090142	1.08445146047562	1.10108247094716	1.09585108757151	1.09420026355959	1.09613874156289	1.11833579525326	1.10360997878951	1.11323341237996	1.09836559357005	1.10903624675448	1.07953793778942	1.11289108739915	1.12593222161951	1.10188744185513	1.11503825550985	1.12178516879705	1.11372164012122	1.09540770732324	1.07221509132928	1.046561456596	1.04499988139607	1.02439448150699	1.04049464253211	1.01229777282771	1.00308333808802	0.998037401384357	0.985690377491458	0.979244614112186	0.941604456231972	0.953621441471104	0.973695890724177	0.99457422445176	0.997412367171387	1.00071692812861	0.976139280746901	0.986133861574394	1.00458086664422	1.00722295665991	0.983875109519093	0.998703883659532	1.01791422524537	1.04064686985964	1.03511773797151	1.0445723555357	1.05306537864545	1.06380640761415	1.05679996416187	1.07961658377056	1.08105766461073	1.08108233029099	1.11030834435874	1.09682111787586	1.08218009484007	1.06009827573274
0.851070753665614	0.850645591617063	0.834786273351691	0.818677909099928	0.805224959572094	0.799511322740055	0.79739818094298	0.785876746444213	0.799744823022584	0.800707515118415	0.801223723645584	0.784706096990266	0.808827335001123	0.833181089487703	0.838633560579618	0.854821388785127	0.857794867024851	0.85487459653706	0.882090509374605	0.909486235276373	0.906266917410415	0.922989653590416	0.934537960395696	0.94151848838921	0.942411875251699	0.913549355843034	0.912940131621901	0.91553981000815	0.911345930415983	0.923010834276537	0.887104250754644	0.878503007821162	0.886470798373998	0.881410435281191	0.858396211357392	0.857666731045441	0.857255336705582	0.850310980089105	0.877212267411795	0.849178676099593	0.876287205584092	0.889563092000891	0.909782637340149	0.907821266120352	0.89804214838325	0.907988267979542	0.923836079371593	0.901699040540105	0.90557053295797	0.919542367163326	0.907552984518556	0.904108508604936	0.892985813901296	0.878733853535208	0.892577461270954	0.923672974214573	0.926878088541304	0.901272397479483	0.895531230900752	0.919615955240037	0.92988703892497	0.937818127444475	0.946598205104803	0.950246429403746	0.953599519972355	0.936839862125348	0.940788657813756	0.935227886331538	0.922633029017639	0.933987375041587	0.946100443040947	0.946866667935908	0.952145187751417	0.936015299008192	0.945130714627162	0.940401467180514	0.948906211761133	0.970567798095109	0.960760419177098	0.973634971434816	0.970074467862981	0.950279489315325	0.943080730932869	0.925580808670542	0.924243625296115	0.934603936621465	0.911732743852416	0.905062536135547	0.904203553880769	0.900522459879514	0.917520616920951	0.915583828175068	0.918209415292138	0.941456773677679	0.941288453104799	0.951987580718902	0.951713104561109	0.932651854554828	0.947523266584626	0.977985873796946	0.95986510431893	0.959703999603384	0.941071235994065	0.926888390932027	0.914581833003597	0.898890978401978	0.905008590339019	0.886241911779536	0.900445430284778	0.899927820816648	0.891414657959733	0.892180193705819	0.897375546792776	0.936148228953583	0.935809556264747	0.964486647960163	0.966023756951636	0.948640364074344	0.982681126594176	0.991735854459177	0.994761992867665	1.01054783196719	1.03177359231686	1.03537743863808	1.02910595423432	1.00128737909932	0.987565445047274	1.01086611635049	1.00736371690544	1.01826327215937	0.970644184797731	0.959356378791677	0.971014558820586	0.970450963633099	0.935844804850487	0.945438526860966	0.949665612707072	0.948716606854947	0.965510137956654	0.937386492281125	0.964617580100777	0.97144070200072	0.989287966027324	0.976098805856313	0.988518693015037	0.973989820401229	1.00366810306852	0.988039486668505	0.978670371879736	0.981519644013465	0.973646886927238	0.961479895652974	0.945351513380094	0.942807138798168	0.946855267048565	0.975997880249045	0.980801607149138	0.957033951109081	0.935125760275926	0.962111440702775	0.977360959939398	0.988730805394109	0.991733767299195	0.990031280798819	0.979354491826139	0.956609468882876	0.946282751552169	0.939737480175444	0.912222378836854	0.91825588425427	0.918420687852509	0.909498122097539	0.899765221529517	0.87025566928559	0.885029735504248	0.874830805952569	0.87626732741941	0.893929364974715	0.884205445205692	0.893379021154774	0.886469430465755	0.875431306529888	0.867501499465348	0.863167481517876	0.853928802080149	0.859061625806747	0.825505247029652	0.817824191769569	0.822239481283441	0.816769402841804	0.837389325706359	0.839369139863423	0.845508247696826	0.846134617515043	0.855769479098975	0.859577755448422	0.868864738924938	0.843597261328036	0.870033864345636	0.879862717999974	0.87040544790355
0.659729278629964	0.666502231038742	0.689851959549134	0.67374007215685	0.690680271299194	0.681842483739882	0.685531282132605	0.698089889476764	0.6956287055417	0.700374494626533	0.689491103275151	0.705054843548144	0.715186903473683	0.705603743175041	0.691396721781135	0.677950872257592	0.670117415519692	0.67683364422193	0.674062419072466	0.675284242998005	0.700254229979014	0.685983203581799	0.702572642639119	0.706044223610639	0.687704150592565	0.702565724560152	0.712877434649804	0.717811453379477	0.722651169422241	0.71636754096939	0.754378595380554	0.737646800430185	0.722858401231184	0.720207783089597	0.710812148153623	0.740364899177584	0.737650631187936	0.72055303996769	0.719285605758364	0.743324091042424	0.744014056829443	0.742854553132072	0.723256872844051	0.734170057352251	0.755801487407907	0.765232344283108	0.789562343761781	0.775676941895328	0.791021972011636	0.803575349004996	0.795029330085992	0.810802249305672	0.802884173401642	0.831128556792763	0.8373378446202	0.826912354713181	0.810994466626994	0.806006117989447	0.797726744433728	0.802600911657181	0.796464599844512	0.793863082361222	0.811157878409042	0.810290061333871	0.828248296314169	0.819183660428171	0.804596385070448	0.793708204304449	0.80762492708567	0.811711592444193	0.815670418893971	0.816074418914219	0.823559192179194	0.820073541340445	0.825002885434076	0.838550220669684	0.827232549257471	0.822268777287329	0.820265931486052	0.840731319966723	0.846712797507873	0.831102235978951	0.839459058988156	0.838623490383264	0.832060250566505	0.831479431787839	0.826592316585258	0.802146276915058	0.807471164639573	0.784117665025625	0.779140359097525	0.79194994401188	0.785703597213649	0.789915484650421	0.793345288821571	0.792453004900137	0.778442469698095	0.773493076630491	0.771220403480005	0.768586846875605	0.760564737810356	0.777206701768286	0.788171708871289	0.775654187028886	0.772525824966706	0.773991490476705	0.776671505259668	0.785854917434505	0.770196438404017	0.7889069874018	0.767276891882199	0.780416710555007	0.789239670633614	0.78661749112318	0.779594250547071	0.774635583325051	0.75960967739837	0.762909817611853	0.760608538111756	0.770162844154209	0.789454056648994	0.775223281827315	0.802498886715023	0.79896221392988	0.780154947644358	0.79458127244633	0.806940239812805	0.806044193500088	0.811578124421521	0.790658415161472	0.833136980959409	0.824074665287037	0.804121520188157	0.802760741319622	0.804184672967566	0.811918038561697	0.810506374303452	0.80010906277422	0.792591717942921	0.799750284791008	0.825642693514282	0.818533260679157	0.789940188069794	0.799117575445264	0.809221260947217	0.827378897152912	0.834799944081665	0.834942785669183	0.844389209511351	0.85890288938928	0.853447583404119	0.864129319964342	0.863413926074605	0.894173979828977	0.908104845287731	0.891535297236267	0.875873828495986	0.881071351923484	0.85777617935705	0.873497113164845	0.858200233203781	0.861320071557428	0.867253934153392	0.858118103649344	0.867064187211668	0.862545367577389	0.831930778108202	0.811572326715524	0.806661245764325	0.80636734126492	0.79403356291276	0.792055668143899	0.787920346563363	0.762939674426346	0.773160415306167	0.781670985713349	0.768350730513314	0.742929419609971	0.756949317373518	0.769353484948936	0.777726391378428	0.75333988048548	0.753256233164294	0.759400503123892	0.752663983249462	0.752124677697976	0.746780120803879	0.728839105194949	0.734345005581178	0.717461112960644	0.705745963295606	0.721371232569586	0.719287527639394	0.716532004489597	0.714101722950826	0.72259718614914	0.706304590396373	0.704086629232306	0.708387272598604	0.70439039769532	0.689021738428733
0.564148994961004	0.558353487719979	0.560459091036814	0.557963483782623	0.55281476278885	0.566792456065056	0.566982124909907	0.563345630906027	0.562839183548478	0.546265618499395	0.556418845529289	0.547500959829109	0.536090857102257	0.540124528495314	0.536335822950564	0.553852265461692	0.562925598567438	0.563549801766394	0.583175312794459	0.572940196852073	0.576968408963659	0.567532403926697	0.578412012297174	0.582763152982308	0.609720187061186	0.612975789575562	0.617323729705113	0.626799658459796	0.619022943899757	0.621614641139831	0.61564032711689	0.604308129314407	0.610459168818874	0.642219593436715	0.63538884257853	0.628128718898467	0.632763699589047	0.606294122687862	0.60517975322211	0.599960829053065	0.590243725748476	0.590016277287426	0.590136043527762	0.581481623364645	0.583081392973215	0.570998740839636	0.574724699468908	0.582427275541487	0.573475148849802	0.592595245419494	0.606664070228138	0.602904161848411	0.602547992553901	0.615097030644963	0.611813105994506	0.616540282211387	0.629243267493251	0.618292033843808	0.613153616099052	0.598053586705912	0.584730123279961	0.607951816099365	0.616537295603497	0.623600902235792	0.615462277516313	0.608458079578553	0.627202458414866	0.638488750891724	0.646609936454506	0.650230297030705	0.650968088043911	0.66344533570771	0.686037242565182	0.671542488981928	0.653946419393596	0.654286734646363	0.657435503811041	0.682631557485495	0.665849649264882	0.669086328500179	0.657082726415538	0.653525973876251	0.663344864390377	0.665549654965326	0.659396469287358	0.665710734854853	0.677171061455299	0.646593446334273	0.631704238815454	0.615445982071683	0.62104296890901	0.629367177698064	0.628605696960581	0.618263917201105	0.616492772237575	0.6203087802142	0.61172913490633	0.634877970264987	0.641025318636302	0.632894131623313	0.649869350634992	0.655218417202023	0.659729219518351	0.65974669633523	0.660726484693285	0.667332598988662	0.680424362805339	0.676680764302506	0.67347004281584	0.665988382083159	0.656166521522318	0.667437967561242	0.646723573313027	0.657861037916051	0.653308921162389	0.641701252398862	0.653540534401153	0.657451797851321	0.664338105052236	0.669059669934065	0.65305054898584	0.663173427138333	0.657497674742905	0.670359674280325	0.687296270959311	0.702855180428471	0.712407894482547	0.711301001644315	0.708120734370714	0.703818775808997	0.692276667744381	0.675791192926976	0.680904723316117	0.707176623367403	0.710999228759795	0.705668819905069	0.703895471025293	0.684306328515989	0.674848013668452	0.682604792765764	0.68401006549949	0.688552398951071	0.687236213775462	0.671834737560212	0.685800952886405	0.677648091397531	0.673851323344747	0.681853341663894	0.667666386293184	0.674135266399085	0.690620428577731	0.680548912435566	0.687950734355289	0.691545856859244	0.689169691805192	0.697087823333573	0.713425116994596	0.692280253673346	0.684425319933981	0.665209316889601	0.662167299100128	0.664234195789465	0.670989009911563	0.675230379279776	0.65105949544853	0.634586480619987	0.64395787673724	0.64001734172958	0.626136636163353	0.632818873231593	0.62283735095454	0.618514775529785	0.637754400197045	0.622451728449492	0.602539514273144	0.602736104983264	0.611830769906004	0.636520513976522	0.614963407831964	0.618571152942186	0.607138315838444	0.606899263371255	0.612143023953713	0.611625501664926	0.597217568803078	0.605620664499965	0.607478597280715	0.587901498992818	0.571475771262702	0.564334190532647	0.553447352066787	0.573386897922815	0.56034108830473	0.547741831254363	0.545108488621628	0.553522617229713	0.544730283118381	0.563523986564208	0.57035491000463	0.564871976706566	0.57358156074335
0.503652525413085	0.507990775126157	0.510854717813337	0.494488986686104	0.495886381235088	0.473512143295531	0.489660412891353	0.490541958930867	0.478895796340347	0.496418282466252	0.489250126237887	0.499380137985922	0.508177784753897	0.506443799878336	0.526829361388057	0.534313778461002	0.546479770295396	0.555073884162217	0.552146602983037	0.540402341151377	0.538752597030633	0.525199055461556	0.52577415108808	0.515146941229055	0.514489943874328	0.515920731179468	0.50459080641217	0.498517158636155	0.488020802535046	0.472650228158519	0.457670002538112	0.45972815321795	0.475247521190327	0.482176894355035	0.477937262685604	0.476080465842387	0.46637296049692	0.446869541303282	0.450447221024325	0.436260048875894	0.432733223135404	0.44258134230886	0.450587050715479	0.470404293003998	0.449745205127292	0.457071081954775	0.453514581151832	0.470104479501416	0.472589029560481	0.487379769327462	0.486074332907527	0.493172637627655	0.50035528571701	0.495400935174763	0.504365373932162	0.494183395597595	0.505052999416206	0.49686175583405	0.495083089744602	0.480679851318867	0.471523464960651	0.466034508755435	0.466918283018245	0.467319077885546	0.473502172661484	0.464244812452523	0.470465986702661	0.486418631036841	0.472692163597167	0.484815466248122	0.479966135973911	0.4914545579671	0.495597658356513	0.505655754151538	0.512131600719855	0.515470743251725	0.500546755721148	0.50195281145874	0.499403448609479	0.501428912937317	0.491319371692742	0.50551549298622	0.506944801864808	0.509769394557837	0.503533985176093	0.524359792359141	0.521178793557747	0.5344940001264	0.548138274767203	0.544231184159056	0.567461589410522	0.566281533012381	0.582327377134392	0.575563344196535	0.575686955410051	0.58086056664205	0.59230099196079	0.586054572119144	0.59659528567644	0.594555852963916	0.578557370251345	0.591979815165569	0.596550066017405	0.576854624578443	0.574003182043405	0.557676131314255	0.564104306636673	0.571672289777542	0.567326857274892	0.579864065368453	0.572799258212727	0.585259326144868	0.57704539046313	0.585782161508816	0.599943425071519	0.590341837666876	0.612423745002586	0.617524041500538	0.630098967424771	0.610961198403502	0.604750471734631	0.591483271121651	0.58957393710221	0.580144058330928	0.582841814984382	0.584320575474071	0.56703175178023	0.574789934176428	0.553426927624337	0.544326310583488	0.528183284085984	0.529699957349473	0.553289218852407	0.553564096704838	0.552820259029139	0.555736702007342	0.546985515664475	0.527413773679489	0.525932240448486	0.514129873491463	0.504184097772115	0.521722050389586	0.523644810464746	0.541391203963868	0.518287436819127	0.525380875482836	0.530937278039426	0.543408731649803	0.549303348186982	0.564439456802302	0.562005624029271	0.561203120569794	0.560575432871285	0.572508439123613	0.580196808115766	0.568046396154385	0.583408546235319	0.571311955586958	0.561499265117014	0.549164474838138	0.542066187610826	0.532964540271341	0.519625697941595	0.511429509342505	0.511775772110005	0.485856689166532	0.489544222832534	0.495920696615526	0.473477964537992	0.463067129834387	0.461972655866305	0.458694759804782	0.458232866808252	0.453842085932498	0.463655351472925	0.463077147746293	0.448835622519413	0.450154868816023	0.447994332801041	0.450804886194407	0.430035314986087	0.457691146184606	0.460142427692517	0.468988906689031	0.465050223201426	0.465906007910289	0.46136352624176	0.477136555674117	0.487275303441881	0.490053983297667	0.505415156355369	0.501031953163657	0.521374269083718	0.507382461027631	0.502724897269875	0.503321995228619	0.51547480859414	0.50007520812668	0.506401615219172	0.499357114908501	0.49133751519753
0.379125833324803	0.378986316843752	0.386432282013591	0.377528971876954	0.377951394036895	0.376655061223715	0.372699593717776	0.378542377647883	0.385041253998933	0.392384042520867	0.39451799888194	0.405347813727485	0.404083984492205	0.411398752771824	0.402500547243069	0.400673266827498	0.405754707427694	0.403343070076929	0.405847822385262	0.398683955230583	0.409354781770363	0.393945921677745	0.399685230167725	0.394269848012111	0.408285150360709	0.413399178843916	0.42624818205705	0.439652952954955	0.428473059014941	0.439765704400479	0.426631409178535	0.414005702196048	0.411922445594886	0.406510875670811	0.409066243085451	0.402965777557412	0.386735565315515	0.372803582599326	0.364712495693157	0.357401576514905	0.344898046217608	0.331465917990303	0.336111403932218	0.352023087915848	0.350330325734115	0.344438052492637	0.353126824905131	0.352631346574241	0.373267394263223	0.375668835835469	0.376042265818062	0.382370100852458	0.368930332812403	0.37378171729833	0.390191716001206	0.391032259287764	0.386653232292906	0.381698272875501	0.375660318949402	0.369431776434083	0.367244782198502	0.373623932940939	0.391429149327155	0.396026424556141	0.40454397857635	0.41907131528209	0.408746104871504	0.431819215673154	0.42325773154183	0.431547161927756	0.437591219270516	0.441721457483677	0.44566970579611	0.440533007528327	0.431784921407395	0.423342984729446	0.428534009167347	0.419788237700054	0.419592246630922	0.40858177655694	0.398083488165469	0.413520292518077	0.42301512588955	0.422250093942165	0.424675167422052	0.428066505087275	0.427445451006125	0.425429886279815	0.412001177065819	0.410094699003483	0.405683011984645	0.424271354663824	0.438694561839154	0.445016615914291	0.443535961042333	0.43382505536412	0.438751122457827	0.4390761364547	0.437779179670297	0.439271598606241	0.440218096885343	0.451014437433912	0.45876136124926	0.455507889432111	0.450249346939304	0.444881891631954	0.452298805980884	0.456578556504427	0.4499119764097	0.462164712187498	0.474302547856738	0.48487742571651	0.484873730599917	0.491098621614778	0.477123159344702	0.474885151241036	0.489826568678909	0.480413191095744	0.485911278575562	0.471155787568256	0.484777397751951	0.475551071771059	0.478331419093871	0.469921439985914	0.483720943793165	0.488375343817777	0.503702251201899	0.519597787300783	0.509489181890527	0.517306207146016	0.510089823118139	0.500408419603457	0.495961616507122	0.489482593581201	0.488570585097811	0.493674203905521	0.472431962148452	0.454045318815529	0.445233339590022	0.423077104128705	0.41274250766928	0.393335071597179	0.40336917840294	0.409379825014103	0.411290917547952	0.402976057876402	0.413326662215668	0.407199768321122	0.422935458363943	0.414325445896462	0.420577175346017	0.428434681265617	0.422415502344277	0.427744264999799	0.440154843665667	0.445949454815342	0.436175396316562	0.429704048705696	0.419198849083835	0.418277565876024	0.412441075164591	0.41926820929639	0.429256537148327	0.427544170131864	0.42390185612207	0.428104891001945	0.418017658484535	0.4174524185856	0.410355010524691	0.402718380665731	0.399603831639902	0.402217721265177	0.399141340676436	0.377954216008672	0.368828261831439	0.363030000657355	0.379756052458474	0.364477896060008	0.365941433809106	0.353391450660364	0.352629163728219	0.36804262149074	0.372605678939072	0.366936363153867	0.364198857768	0.374198735532308	0.370124907966914	0.366301748033447	0.363406329264764	0.360331613342166	0.356443387577441	0.381581521447863	0.389117419849562	0.397991435965281	0.398830986602927	0.38924718393357	0.387489394382633	0.386000692668637	0.38672860366339	0.383196163379972	0.379847502941152
0.27391358190043	0.263563846303615	0.264332721825621	0.277026787565905	0.279646367167109	0.280509421411726	0.256823687820241	0.267872132257718	0.27020095376855	0.263754189712332	0.252963625490869	0.24706509903501	0.261362339592567	0.261033831238744	0.271478691899289	0.27032847965582	0.269522241330732	0.265858202158841	0.26925016751855	0.271137302645134	0.270980709810667	0.277010431336086	0.282239236542681	0.29558218180718	0.30117533931829	0.293637808933873	0.29293267254255	0.289659227230597	0.297544758561626	0.308845692691252	0.322420617202393	0.321363592173075	0.314868944998495	0.312916650713783	0.312997090105163	0.310712888347584	0.307391287186392	0.297576682790413	0.300627664249591	0.296670750991301	0.294270860026448	0.287251189552764	0.294034887772644	0.295852020145126	0.297273633757241	0.311420383073127	0.314757420675585	0.308959927494128	0.312211394848793	0.3246609292294	0.336796094876522	0.341030074113657	0.34270933122776	0.341426888922061	0.325418378315375	0.318106881418409	0.325481088344911	0.326413393538763	0.328792202001215	0.328835430513259	0.331046193938212	0.322928907637742	0.315130239912189	0.32039019121851	0.322564473821209	0.320150867566891	0.329834749485761	0.342491099531375	0.341520930343677	0.3308414389236	0.33400450813956	0.337701403826577	0.353138715141291	0.352425876907098	0.352270300809849	0.355103670537698	0.362795621512006	0.367118712319273	0.373818794908697	0.375939446362945	0.376454414516144	0.382158614621955	0.384130498275509	0.378031469027699	0.363987345531884	0.355824469894678	0.358764609293698	0.35405018053424	0.359867470113164	0.359807755708368	0.361378875104038	0.341524281817537	0.335197091756231	0.340365633691415	0.348019391697588	0.335145077168458	0.333535688518585	0.334995950142174	0.341146048313254	0.345110298628123	0.337970600775426	0.334017289573749	0.332492954744146	0.350038000801163	0.3481423573524	0.348323801298495	0.324492843131578	0.324825714325814	0.333511094223431	0.326253801192728	0.315023879194082	0.315569122526724	0.324337968791404	0.325834691517194	0.322778518013586	0.320364143248677	0.327841255813816	0.323125096053822	0.316201666076516	0.32863802540561	0.323763708184942	0.337133442601951	0.346774101867662	0.35458574658693	0.352841671809388	0.352617548470054	0.352644171938258	0.349135206372619	0.354635140671746	0.370213054418546	0.378973686598392	0.376404718060337	0.377953605027836	0.368200079583394	0.355168071955942	0.357599849916544	0.347425944036667	0.342457520932593	0.33612439142371	0.34191908031935	0.338609665053328	0.327959046638502	0.325505195380216	0.336691457623839	0.335337105007644	0.340368208873456	0.343424194409105	0.348317280824834	0.34924777314734	0.356546932525259	0.368413719641536	0.37178661841622	0.36323797596111	0.365782650778298	0.357618790547722	0.349331723272088	0.355112589667039	0.355266572048776	0.357811980272915	0.36081067972206	0.366279870741232	0.356673629221822	0.345346347177332	0.339442341982991	0.337469191694049	0.337192592592304	0.342083984243036	0.337957191247083	0.339956768373049	0.317061566931822	0.325217688022433	0.321258117358944	0.327348638197158	0.317448745207471	0.321563259875874	0.319986868908033	0.327124719918386	0.324733560230318	0.329423793708189	0.334554893985145	0.338370653795912	0.340666421097411	0.351963048115337	0.340069436391026	0.320849463288952	0.321518751307694	0.318134628652559	0.312297281769682	0.314209826868476	0.315206209783653	0.312684348564027	0.299775380389855	0.288396847979338	0.291694808034946	0.299325016254248	0.289558954690442	0.287225790025936	0.302804290365911	0.301987754078804	0.303454823244147	0.294961280674783
0.22732392811034	0.228936425042185	0.242100458808338	0.239460091010294	0.230282485389692	0.227879057516414	0.225949345256449	0.222791224949202	0.219415421114217	0.226130761012791	0.232482350451939	0.215026585580607	0.215653307039589	0.211524757505056	0.206656507502041	0.200933059125744	0.214385968813663	0.220686095000083	0.218791418521563	0.228978983723058	0.230980071479779	0.236421003494985	0.240379728300146	0.244884319028369	0.24804349375623	0.23822751667757	0.238637746652125	0.235302252790234	0.23196916585459	0.224593065589105	0.223456415481563	0.213894898042623	0.206155098514382	0.193909239668001	0.188908765223292	0.180524636953694	0.177792325518587	0.189842330569124	0.203372897253037	0.207447659057487	0.212745401742416	0.222112013714788	0.21878592284381	0.226494903817413	0.235566299609119	0.241322754970174	0.251963622713289	0.262548108308618	0.267984155095504	0.269116244012092	0.260350293087452	0.257517487999918	0.251219708170575	0.253494081876864	0.256636866670071	0.26967228440655	0.27321489573295	0.257789731753111	0.254275520859669	0.253683730065396	0.256776507405997	0.25439749937812	0.259709336433105	0.264862413502545	0.265384415706388	0.265273688731615	0.272419076553056	0.27293145031081	0.270029925808897	0.279983551286715	0.286803391994501	0.284316067759261	0.283077726299968	0.288164221929399	0.286743721934184	0.282458529515403	0.283012196604508	0.28828365978742	0.288186246846828	0.281755813170121	0.281681994775274	0.281099123202602	0.26852014206935	0.271890456296985	0.268174463803085	0.254598684869784	0.258962569365871	0.262051457202038	0.263907839052869	0.258061260219745	0.247694689508379	0.263883601077427	0.26637569980965	0.264721862869658	0.271581351643395	0.269892952930633	0.27659621017064	0.277318572505633	0.275407442207886	0.281138289957393	0.283055221692662	0.285504124925279	0.296875879487649	0.296582245641053	0.282842640483297	0.277328204278317	0.277220342370385	0.274373344898537	0.271152852077528	0.269452006110827	0.277174921681804	0.264372365354992	0.255859863947778	0.255823917320677	0.250742641896655	0.244941761271081	0.250214149410974	0.254524643343578	0.259973246802127	0.27168721933719	0.282600943101207	0.28698963544046	0.305524999779644	0.302324693113884	0.297731492754913	0.293777667101371	0.294334503692211	0.288843638867808	0.285523869216281	0.274915599096606	0.272948835573083	0.263154523594036	0.245543327184199	0.233825345742763	0.227163653385476	0.215245284358794	0.212821636416282	0.222174566524338	0.238178882146535	0.242646464237992	0.243633350768538	0.25613157496078	0.251617017782865	0.258936141249076	0.268349440698939	0.278320350730079	0.288122817840931	0.302777330497809	0.31053795224418	0.304151428313033	0.29815694162001	0.295588833798711	0.290636425803111	0.283281838685022	0.28662034675497	0.2971628103075	0.300613275085254	0.284743709106179	0.284390193226273	0.284313102089719	0.288559612453154	0.286743415248176	0.285845639312934	0.280945074523647	0.282431204258975	0.279935331093551	0.273763087071278	0.27753272875569	0.261867783739453	0.268475224833948	0.273292196357988	0.265210621750444	0.259001787111057	0.248668799666769	0.246180485353095	0.252342817018131	0.249761949500875	0.255901819034825	0.254737094567137	0.249440223565766	0.252149397655432	0.248686115468963	0.233831607457195	0.237379471360348	0.229629540849382	0.228865790084554	0.229292973538296	0.222663113717374	0.223141542171446	0.216096907256308	0.210862361129319	0.225118248656131	0.226506197546233	0.226971700031162	0.229945951865132	0.225665101282636	0.236481483925282	0.233279733805572	0.233277854018834	0.239344759935734	0.247428547455991
0.179436317453774	0.173227307530011	0.17499845804427	0.17991769740131	0.178929914456457	0.182202674455241	0.183230134349519	0.182698450043883	0.193654245649825	0.202689107638346	0.204604223847912	0.194372980297251	0.194490264851565	0.194261740693487	0.199687409012701	0.199733732719058	0.201103733072831	0.196917715398762	0.187686818002323	0.197644854980853	0.188816934367745	0.180530407235815	0.18340750082829	0.180459465475488	0.180469632131015	0.185215841534158	0.18249434038278	0.1743858589011	0.164118127391109	0.163513023490616	0.168247931067574	0.166121907266807	0.168312107558016	0.169140240891399	0.16540015996321	0.165907174013896	0.170869649234983	0.164152038038958	0.166765124210639	0.165121869171682	0.173443925302292	0.17191738038307	0.162602491470406	0.161655104617942	0.163746786180316	0.167110381610341	0.171564498055536	0.170181398800358	0.17368781282965	0.174843654038938	0.169153035946535	0.176976398821389	0.17250733993495	0.172518853827394	0.172008310294389	0.175755754178199	0.166677509368864	0.165336224365318	0.17286674521933	0.171600579073633	0.168991523414659	0.17556668525553	0.179310474679606	0.178715252834916	0.188038127059884	0.190237859724827	0.192167079244275	0.185798536795418	0.192961915382543	0.195965510463806	0.194427567304069	0.187987983579237	0.190362761721441	0.1934260516313	0.189017767612343	0.185003936010016	0.185325842453317	0.178993782315463	0.179472468375797	0.175294903552718	0.176366488035605	0.180207572513561	0.180484502335286	0.172191934586652	0.181187968836949	0.179710350642798	0.1807893348835	0.179219418622346	0.176222532946501	0.18621999184221	0.183944995325994	0.187160577735616	0.191461611855372	0.200747297827481	0.204190077442595	0.216253650635053	0.213276009321224	0.212016359022453	0.210072461371043	0.220542085375075	0.220686429663768	0.218978908910468	0.219510240844951	0.225748898883856	0.231526827999198	0.234828131740228	0.225473542936217	0.231019746534946	0.237319669428605	0.245761860904978	0.245179533524372	0.236811549505778	0.239045691404735	0.243108277855032	0.244225253375684	0.248779451242081	0.251344210205574	0.240197109406473	0.234270970094867	0.237442833915121	0.227957234444508	0.218731661163415	0.220611120729787	0.222227916801719	0.221005751801074	0.222836274983531	0.213008299168553	0.201567016245599	0.197650531330368	0.196718718577427	0.199343890085498	0.204195327510178	0.205633927098808	0.201836031068355	0.20037983901988	0.200983612051876	0.200741676406288	0.190818126361396	0.195204843650088	0.195986323865084	0.1988843903622	0.195921843314871	0.194630732950424	0.194491082704395	0.193128519790899	0.19683826473307	0.196958921999444	0.199800030009659	0.196602203057339	0.196822142422271	0.196001467628327	0.195151846796356	0.200392574710181	0.202146733653138	0.19438108569293	0.195862760933729	0.18568624042539	0.18062693216437	0.187991384988537	0.184845365167985	0.188137082849308	0.189903359930436	0.188151268920173	0.192836123562203	0.196331636390807	0.193080899667226	0.192398796402051	0.178531254204903	0.177243321362928	0.180475644647128	0.173332791911556	0.166190556251697	0.163156795881794	0.164030346559701	0.158719378135597	0.158856702575621	0.151381629834823	0.157082885939137	0.155860536406362	0.151619447870058	0.153073009667298	0.162801389057085	0.155868278234195	0.147310431759381	0.157729225287515	0.15284310851492	0.154585739739752	0.144969148566443	0.148650126228136	0.149235733729219	0.149510402425578	0.1468351535927	0.156363477774145	0.157149947429795	0.170009997707008	0.182714390976177	0.178799891913467	0.174217138189372	0.174501796500335	0.185699290037686	0.186759983767825
0.116977606819503	0.113186138635315	0.106679864419281	0.111351650054599	0.110094171109201	0.117188681518249	0.11761048026212	0.112451183167421	0.124730935239111	0.129768293699587	0.137887715828484	0.147512250318418	0.143798184588654	0.144364910665581	0.149664706890666	0.146967582545576	0.148773274974927	0.159974836703896	0.162131811378278	0.162045627724432	0.158367391385194	0.158875441145594	0.157534154026192	0.154680915737482	0.151812672508037	0.154764696111014	0.169393855963922	0.170441736265873	0.17072901397103	0.169272065551852	0.162978119021624	0.16576583162133	0.16312520573317	0.155482591677239	0.149147671182084	0.150903641309048	0.139230433044935	0.142030305345127	0.136056280867418	0.135805458756105	0.137711997031348	0.139628485341074	0.144742976968308	0.147858561550074	0.146288606370757	0.151153113354379	0.156487101545274	0.166932789341736	0.173389447972115	0.175481229636586	0.173409767291741	0.173203300350435	0.17271326460304	0.167281681571071	0.163600875035258	0.158145344401192	0.160068935121308	0.162959561375473	0.16385123908191	0.166790776978462	0.168789263221375	0.161914264306245	0.157584916791666	0.15864256139989	0.157332814683906	0.1554778367381	0.160727463830387	0.154494872541238	0.157410566357474	0.160687604707863	0.156310441339106	0.155277037541042	0.154702105800744	0.151948018281124	0.163435945723361	0.167331032100596	0.172021304247052	0.175428564645686	0.176511708707443	0.181936441231778	0.182100657225119	0.186039292360814	0.182161150041339	0.178725786365606	0.179360035036155	0.179081130455265	0.174333538268916	0.167384640779888	0.167664399953018	0.172157696078401	0.165064228289976	0.164207987228413	0.162144773357984	0.150594523500758	0.150357439226452	0.14650397175522	0.149191581727327	0.14653663186825	0.144715187701994	0.148752590600719	0.14764574077378	0.147170491063066	0.142022624034327	0.142702524342583	0.142642942385611	0.145199105766146	0.142399917549383	0.147458973629677	0.160080711459416	0.160956218785826	0.160682620463037	0.175599556398847	0.169912357270098	0.165140767346184	0.161923414553367	0.16382650185837	0.16783758886715	0.172267340757697	0.181393835793765	0.18428097511838	0.182987663029007	0.177471992950289	0.182163320872548	0.178071801482413	0.173334666073483	0.180948442686283	0.192572078689458	0.195405523831711	0.198013077870288	0.198311898040213	0.191476794354099	0.197909595160359	0.187819672675873	0.17890051555301	0.175229379319578	0.174250940017614	0.168478708268396	0.166534533622947	0.160271512447156	0.156293017166364	0.163001486072778	0.164239629305186	0.172913114311291	0.170405727268822	0.167402827129295	0.1742835731358	0.174960722279695	0.18772837235371	0.186646735393933	0.194421019489521	0.188176910420198	0.188812488494018	0.187611646949539	0.177037401260124	0.174712398800388	0.17188264315405	0.174149981811786	0.180389164992587	0.180412834401194	0.181976412941107	0.18179834982703	0.17431790396064	0.171275043645809	0.173887069534312	0.164647071286261	0.155712807038991	0.15978655205499	0.152591771828301	0.15260767004089	0.148187424688779	0.139392023877329	0.142037884671196	0.136875141788586	0.13194956349967	0.140448752407495	0.13743613447718	0.149309982143944	0.15044644826418	0.155720754424322	0.160764289434466	0.162549992933896	0.159726422249601	0.153732493302527	0.149924972695942	0.15486280338487	0.152806268302504	0.143126299871877	0.141782889178151	0.142056862324556	0.147549685836112	0.133972195664681	0.134185981198088	0.127954130999517	0.124047231185499	0.127722728940273	0.120595974790327	0.119136532761692	0.120001447701319	0.12046956323221	0.125728048920747	0.116520099071353
0.0942891349356681	0.0947408707511789	0.0994358276021696	0.100844269070021	0.100303659111756	0.0990897976695865	0.10086395809056	0.0997686495415832	0.0940170361119175	0.0979439521120648	0.095213891828344	0.0940571037898333	0.0921407706076648	0.0888408953834811	0.0906813637211205	0.0937473212671167	0.0964268665091764	0.10000648755925	0.0971318654558004	0.0994896996967333	0.104070589840855	0.0995096517220224	0.10539940202754	0.103303714226639	0.1044288372635	0.104730383180219	0.102004878491946	0.103752298016652	0.10487243758105	0.110093263539524	0.107947840607908	0.106322129403832	0.106327615803283	0.105716975811723	0.0954839462932479	0.0931344871448722	0.0920837477187796	0.096404795025247	0.0956081228041311	0.0937120543776392	0.0942848590658709	0.0914217538242076	0.0887439053999929	0.0906610326784424	0.0872613708184945	0.0937573508432265	0.0953100004237807	0.103447865053885	0.105382779678454	0.102066380556148	0.103722321652529	0.107380086030735	0.112847621601133	0.109371638458616	0.112252020638943	0.112881425420996	0.112437698037737	0.115344283045283	0.119837478115166	0.114754669099816	0.116278263837341	0.112494483878655	0.114139328556561	0.107937361949082	0.110945353139463	0.112339988547253	0.10971808601806	0.111174434152853	0.108127317848169	0.110868516998775	0.110840734339862	0.110453882311379	0.105771472357909	0.113528455919924	0.112605643972491	0.111437784319398	0.113107535384878	0.113552581354583	0.116428454027789	0.123543837822532	0.123620596883364	0.12231001325245	0.12664252698502	0.125632229489902	0.136882122708841	0.137458577401829	0.145130150116058	0.150346346403297	0.147287370151541	0.147647171068181	0.146281037677676	0.135979371794632	0.133423285637258	0.132837291909068	0.128648067603028	0.128836965480156	0.124492292948939	0.123225055720238	0.121210758982135	0.119326692074383	0.120259817800896	0.123170205620234	0.127067954070983	0.129203731517284	0.127144683485511	0.128433590121846	0.131859898458582	0.127407320573191	0.124115781133103	0.125917921447405	0.119463080878867	0.12217989675991	0.119952664222504	0.116274875224243	0.11519014202689	0.115510981537398	0.115821550093945	0.117569500798961	0.119796104130284	0.124757143359731	0.123688847344167	0.119663314042203	0.130104710698579	0.126093198735725	0.1265088926544	0.130524288708798	0.126911882719728	0.127835177287286	0.124765455365277	0.127722017913565	0.129018063195943	0.119944279463097	0.124326248168863	0.12244921847835	0.111580642971878	0.105871713193421	0.105493559006677	0.109373686178326	0.10713685193588	0.102578479823275	0.106052588497267	0.106539543093576	0.102973731705251	0.104969820432818	0.10305730544529	0.106995033757911	0.111832601335717	0.117195763209463	0.122597662851739	0.120280123427022	0.121336127177651	0.127189269151442	0.13085962685624	0.123378982363683	0.124871343809574	0.12394283247066	0.126315500012331	0.124738832300637	0.130666228686556	0.123623764973108	0.126453778763188	0.12034228072546	0.121170694055611	0.11265507954886	0.114117166785227	0.113448450539661	0.112526440777817	0.110276741991568	0.105148274832986	0.108521080602595	0.106703753723875	0.101450792032042	0.0978474697186942	0.0996908880849672	0.0994551281347588	0.103600921278378	0.105037203893451	0.103294771651277	0.105319612951967	0.112764550387439	0.111219092461875	0.105407625101433	0.109335703497868	0.110756092586546	0.123302734210182	0.12073131869893	0.125716221248739	0.126500655846821	0.12713118867436	0.125323041798822	0.123133856807666	0.120096164400789	0.115392640860457	0.117158333846604	0.109948918847203	0.113923896031686	0.105801736984732	0.104748540524841	0.101522490026424	0.0995270222419104	0.103283964262169
0.0781770762308755	0.0797094002511888	0.0709861254689825	0.0711990380101359	0.0668648735628909	0.0662851998852556	0.0645283540927439	0.0676328263170733	0.0670840644116702	0.0708540957819855	0.077160709612718	0.0776804608331963	0.0808124322592729	0.0827478564762018	0.0842733853636807	0.0841874331268315	0.0824208276635494	0.0837305207074602	0.082303140439454	0.0776496564054789	0.0778765160254999	0.0753819227583852	0.0680692940234528	0.0679976509812539	0.0765028396440049	0.0740150290286941	0.0807480971898864	0.0860545076564935	0.0849440412528595	0.0881537566249287	0.0853002962004311	0.0866089252087379	0.0854146956522433	0.0929444318874834	0.0964547750756414	0.0930124212263545	0.0892040858846649	0.0850581495028587	0.0811876562893322	0.0812512591076217	0.0864403604807144	0.0881877489869196	0.0943742037233642	0.0927808643999523	0.0929220055446027	0.0919133796296953	0.0915027397934399	0.0941320410643072	0.0996436981500018	0.114350049997133	0.104967246029375	0.105936597154902	0.10354486848229	0.102672863169845	0.0977281913206782	0.098809091527144	0.100777165353368	0.097901195977905	0.0965014320583446	0.0900224981441413	0.0906844544177326	0.0851314552033385	0.0856664634079396	0.0878420991362954	0.0828290628570069	0.0890966791647877	0.0830445643913617	0.0823174464004061	0.0776683839906537	0.0833743382191388	0.0887320564139883	0.0907671600123376	0.0948256049755487	0.0956097580567866	0.0907930437091951	0.093569594637649	0.0911651565525627	0.0837027157652308	0.0835165033653849	0.0858953181526674	0.0931446304927449	0.0930829093134039	0.0933839345398742	0.0931287932967795	0.0905888970255346	0.0910680231971413	0.090208908234353	0.0892466221570629	0.0897758723320524	0.0918382380233799	0.0994056365136455	0.0977716192287542	0.101899992057639	0.104878187855184	0.106932158843272	0.10214031041588	0.100846459274918	0.0960873479038117	0.0997955382386213	0.0957922560833517	0.0946053614255404	0.0963314758531052	0.0890155528796283	0.0843668642931629	0.0824489773798859	0.0799703950959702	0.0753603895330668	0.0820311330804232	0.0789557651457922	0.0864861473496137	0.0925418565517419	0.0910980608547535	0.0928616089093302	0.0980858602497388	0.100211293753925	0.0980752114161385	0.0995693000158945	0.106615310696962	0.0997905216720893	0.0960204819355736	0.0958241866117963	0.0906574107265643	0.0840155852217255	0.0867491729992294	0.0871773967520861	0.0888477147894037	0.0972525472738743	0.0980132790854006	0.102743256734634	0.101793719186032	0.0966258417202416	0.0967558852298559	0.100319086924083	0.111737244478896	0.11033941466064	0.106557049670463	0.103231287071275	0.0980874694707955	0.10041401047883	0.0957744921430922	0.0999059546686068	0.103610052708061	0.10909851726975	0.107569107788587	0.107560005715722	0.107505483945157	0.107383053209162	0.113326626086359	0.119066834850155	0.125993619051858	0.118265012115531	0.118803041973217	0.117200340124942	0.116544657293903	0.112079350668998	0.117517297655681	0.114296552875887	0.111187625934476	0.104896962956446	0.102740839606282	0.102211036957211	0.0955239212988281	0.0965402963853122	0.0999245290864627	0.0923444565278957	0.0949336834528599	0.0906770897936964	0.0863917778098588	0.0829163501986461	0.0846062751474078	0.0910138962612445	0.0882465918774537	0.0895340164262296	0.0865414767200724	0.086560206534993	0.0826230672901281	0.0821071353870136	0.0755062377879809	0.079018948232885	0.0802585603643455	0.0875959813408925	0.0817441212896618	0.0833627431378507	0.0850701142001685	0.0825925115466543	0.0797569836466396	0.0837555034307302	0.0800927720721415	0.0795017769206488	0.084282072095891	0.0861893897919685	0.0903420838419467	0.09283977955857	0.0966459427544173	0.0938745008525075	0.0891655697621047	0.0886478485415453	0.0867974982668856	0.0884364921667455	0.0855680936368296	0.0852883308574827
0.0676876296967565	0.0621990205148447	0.0669032247452706	0.0705730530101353	0.0708502475956118	0.0740431489318503	0.075882705807503	0.0731116437291463	0.0745553178590224	0.0708599512053888	0.0719556094498753	0.0713177571584532	0.0692667516170905	0.0741212071801565	0.0717532161342994	0.0642773493456854	0.0670046246687625	0.0705339075146659	0.0667626504283779	0.0710739874641052	0.0697268579099091	0.0733555342308098	0.0728629149057475	0.0746409151103497	0.0737213706830906	0.0719747259514242	0.0689818598932401	0.0703758910068434	0.0640025688094125	0.0634604952829113	0.0617202290203082	0.0632463270184108	0.0635300434749291	0.0675519081665925	0.0623673460029171	0.0614826027821641	0.0669676993628455	0.0658060980410952	0.0684906281693375	0.0728629010780549	0.075597963583659	0.0801718849333105	0.0831234649370447	0.0778419562190616	0.0722870792842579	0.0727578951286837	0.0715241224250089	0.0745971532586924	0.0682550796070967	0.0680841310555472	0.0694995725436691	0.0670919997285092	0.0679643195791333	0.0670289419917025	0.0641708417650938	0.0641618781249633	0.0668256915629431	0.0660674352660157	0.0677532178617227	0.0649484043606473	0.0671610483127188	0.071389014456451	0.0699969275936008	0.0671776429642437	0.0642166582305138	0.0647134234099818	0.0662406155654118	0.0636643805889771	0.0622172827552148	0.066147760385814	0.0655397265985869	0.0691094046534308	0.0752213046048007	0.0771051417417336	0.0788544326728747	0.0809861330395426	0.080542660858641	0.0840703684352102	0.0833029144889089	0.0825661414368395	0.0828216769274441	0.0816575782914866	0.0877302528429937	0.0883035496560638	0.082596324239772	0.0765520436576311	0.076057680800793	0.0787642211747508	0.0836705926803546	0.0864338007962921	0.0862836354513047	0.0898379045081527	0.0850026742124981	0.0847567119907115	0.0877329783749692	0.0825670441561909	0.0851090464562731	0.0847213627633686	0.0855848428105357	0.0857269843305308	0.0818961715338874	0.0778122143548234	0.0777400496751009	0.0865966864217152	0.0878952357693201	0.0891275593717445	0.0945017841206693	0.0881662355719036	0.0919816487609302	0.0865229235093442	0.0877213187766312	0.085438621214839	0.0847429283979325	0.0862021441004918	0.0826253089284937	0.0753586335365023	0.0805111931903527	0.0802729991831827	0.0774541012480367	0.0791816919995175	0.0768415110513351	0.079329283417052	0.0791734408183832	0.0802525576382191	0.0840582592633513	0.0822152143559781	0.0782140141655767	0.0816132095784265	0.0729394865549432	0.0742034731821567	0.0766304967193364	0.0747108226347668	0.0765808911249867	0.080592650655193	0.0810114505714191	0.0817650543564423	0.0831540945740653	0.0826930361732318	0.0852358633037064	0.0903290259414367	0.0919257173141205	0.0935905003431742	0.0944770735854256	0.0881284094013159	0.0886411486038747	0.0838564996682848	0.0812370578825126	0.080927304512588	0.0763741763474683	0.0754590609057888	0.0741640517539826	0.0772920218506066	0.0785777093825467	0.0769664484492379	0.0746863822333754	0.0759159118431152	0.079936656677967	0.0803587601768423	0.0810261272581634	0.0789058897296201	0.0811973868782312	0.0826424345913699	0.0819604816150934	0.0790511167954151	0.0705952404520858	0.0676547315633083	0.0703043339121792	0.0653928450073881	0.0642273668135659	0.0662873065463395	0.0663058528615558	0.0634679945718014	0.0689153676081416	0.0683285520944423	0.073393197539189	0.0734774083067191	0.0736604089239124	0.0767980643258528	0.073688470286627	0.0757821190633926	0.0736665373105218	0.0738842879822238	0.0796045984570113	0.0792572757635643	0.0717379059322095	0.0661997130723475	0.0671872008309639	0.0666050709415858	0.0707331342089647	0.0709590971649091	0.0707413072478164	0.0728359247019473	0.0668827758177393	0.0665672994578349	0.0707887898721056	0.0704219208616119	0.0731974565346133	0.0700890351829791	0.0698156207569619	0.0711283437268167	0.0685374926686676
0.0534140593986142	0.0510252948978579	0.0553637060087044	0.0581609296481847	0.0549940960150945	0.05603607227318	0.0541819032818468	0.0568364893378449	0.056114405427885	0.0515484572596646	0.052829393762123	0.0532106833352198	0.0560350028378214	0.0547385324686199	0.0555345982587447	0.0581358973359568	0.0565027482218631	0.0553122073911532	0.0555482206768678	0.0528885959212617	0.0513925477652769	0.0519513958458526	0.0535522510613379	0.0570166194170198	0.0531722713681651	0.0529129674207233	0.0543507179650574	0.0477392129688655	0.0470478183692879	0.0472531525944999	0.050517150105901	0.0492937746864161	0.0546785794898591	0.056369228470419	0.0571855155260043	0.056375744501343	0.0558489443960743	0.0547516815411362	0.0498083798403425	0.0508430358645656	0.0469889368288024	0.0481975131814756	0.0468178964646113	0.0475279932886565	0.0461318297758556	0.0482513417167757	0.0478368691677059	0.0451283031992319	0.0440028330571555	0.0423607406773804	0.0476707394988007	0.0475560402029224	0.0477711539580236	0.046293863941742	0.0493234135931989	0.049792986729468	0.0511409799916192	0.0511069115371707	0.0518751533224429	0.0563848117806974	0.0559374030737296	0.0612765109704595	0.0615005367846087	0.0624739237158581	0.0680522214313493	0.0693064614414592	0.071026730295717	0.0762441272421616	0.0744499741006738	0.0767331494334218	0.0747052735220893	0.0715346316157738	0.073637474047542	0.0736166900422659	0.0724324239053753	0.071507215486747	0.0709344812388868	0.0691103724319345	0.0686382397942204	0.0606659757276342	0.0568841598533203	0.0576044638206635	0.0590303996804171	0.0617333619592042	0.058608919495221	0.0566743991752219	0.0583007829272659	0.0576811606956415	0.0562482036578846	0.0562815338790348	0.0534289583484814	0.0612182918208865	0.0619871647031835	0.0627071284145541	0.0661033095079711	0.0634315903468441	0.0607949846907039	0.0660340486928263	0.0623491668824637	0.0619428529819839	0.0599351372566124	0.0625296465801521	0.0656480708946102	0.0638963294775419	0.0643762426763885	0.0631520763184578	0.0618077427743001	0.0596212774886671	0.061521292423862	0.0568683553532186	0.0588327372276444	0.0601041483667718	0.0591539029909339	0.0627052504219059	0.0640858442078761	0.0663345624745044	0.0650816920957754	0.064046621210869	0.0653570128682115	0.0619139557752302	0.0617391254850454	0.0629560656725692	0.0620201216331449	0.0649015209544572	0.0633646229049912	0.0609227316749205	0.0619282442491817	0.0566583955014279	0.053262976104941	0.0570679746855846	0.060170730678256	0.0599507025955349	0.0635131901750244	0.0628137885886117	0.0633331186257029	0.0619227748560336	0.0623672782036824	0.0612661885702883	0.0567036090018446	0.0552106711791339	0.0539292632617651	0.0557112897736029	0.0527203316961922	0.0488216118129832	0.0472563510917396	0.0506713282811839	0.0485209385072409	0.0466340452089435	0.0473174680897523	0.0471626924649801	0.0517496457291635	0.0508345235809375	0.0500007721083898	0.0489380736945485	0.0524276202942566	0.0507048124266665	0.0548256736355809	0.0535079185674891	0.0630822608761951	0.0642543830886226	0.0643425745305039	0.0665193935444782	0.0672822001632885	0.0672294491999399	0.0735565307872025	0.0736167868276913	0.0729748942018263	0.0796557471417057	0.0783437198912357	0.0810948645447061	0.0759245669093836	0.0737371656678441	0.0699516173000116	0.0682068205276119	0.0655373558394686	0.0656782989372274	0.0615898483833713	0.0613287045690856	0.0593044812226176	0.0494087564280025	0.0453462979742612	0.0439626372225238	0.0466610475473599	0.0453108359435991	0.044317239455902	0.0453057516969326	0.0458693405979864	0.0470307714098042	0.048234783308644	0.0473540587123098	0.0465132914920109	0.0564769248484538	0.0568159217935383	0.0547439915751241	0.0575375289703198	0.0573717037106964	0.0573923204977845	0.0601839204998475	0.0557966300258892	0.054708298714004	0.0521594802867808
0.0378645247674683	0.0388824537470876	0.0372429642532653	0.039906140718371	0.0370935819563951	0.0367440034442127	0.0350454174166089	0.0377634572944031	0.0389666216970879	0.0335586500779796	0.0335868826843168	0.0314779525008373	0.0329335360218052	0.0313769884130047	0.0317531398945536	0.0315854175267247	0.0340388281810137	0.0361020272094681	0.036646873705554	0.0372898432751704	0.0378818659817975	0.0403783260516067	0.0400009881121584	0.0395578922986187	0.035361935396346	0.0383884021921151	0.0398998308710191	0.0402618528391553	0.0393801303082969	0.0414387235925917	0.0386454919607786	0.0397436896321001	0.0370690935420458	0.0346429183377288	0.0360370355456579	0.0382131296127019	0.0389926733502317	0.0389824751410676	0.0391421743657482	0.0394588738512885	0.040309913413192	0.0392220942641422	0.0400982157146485	0.0408857547275947	0.0462407153407835	0.0451294803517696	0.0433728444846989	0.0411009832281331	0.0431441030869725	0.0455572849863465	0.0443349349538853	0.044828575970545	0.0439306979281901	0.0421789623516047	0.0431414517448506	0.0467988044629694	0.0427423332351292	0.0437476063931587	0.0471530502748949	0.0491494759645606	0.0496310082837196	0.0460052807739476	0.0439765255177345	0.0441232818137362	0.0450790267924786	0.0471177535152342	0.047315802798074	0.0480372759771103	0.0442682912519551	0.0437456157832468	0.0420457202949671	0.0444183411916942	0.0441281146234095	0.0441874046131318	0.044903030763226	0.0458168193135216	0.0442534317390867	0.0462013258697623	0.0436076198653083	0.0425031967926923	0.0428977284012797	0.0499898555078683	0.0469947906844404	0.0482338878922966	0.0485255487600635	0.0475738732482521	0.050877326403313	0.0544856024336693	0.0533828465034363	0.0505837507717924	0.0522554462512934	0.0514050593570715	0.0507234573521015	0.046795196178357	0.0485637007283873	0.0461527892553483	0.0485654135598765	0.0491757635823241	0.0471237428440531	0.0441703546009694	0.0453427233224179	0.0464209922342252	0.0425686365955599	0.0441414583770144	0.0420449246183838	0.0410746590882694	0.0393760730606656	0.0409611118127823	0.0446987930014209	0.0368042406518862	0.0384252815642229	0.0380171166941496	0.0373164769294699	0.0354811728982269	0.0395373574171211	0.0363136981765175	0.0391413278849697	0.0425979295571762	0.0433192039564939	0.0423105794935457	0.0446136088310786	0.0458080967514437	0.0472409567776331	0.0459858813004382	0.0410090957558211	0.0455561640787153	0.0460711103250104	0.0461782138698751	0.0483688001454657	0.0473729614403968	0.044461364964698	0.047535373857763	0.0443181417270858	0.0427157827966172	0.0430568191134598	0.0453713572730909	0.0469200167222884	0.0454659475057847	0.0477094336915707	0.0477402900899383	0.047985193199068	0.0470668734321289	0.0449810664850077	0.046564013865251	0.0494895518509614	0.048965943158924	0.0469065788073348	0.0475677698934159	0.0477641063275059	0.0494835111847994	0.0499981495115431	0.0469331013713478	0.0476944291443339	0.046609798038521	0.0471255202668731	0.0488875709235418	0.0489724779438233	0.0490154001904828	0.0521268408646068	0.0546791000014059	0.0554785225375434	0.0516027190984152	0.0503959621065157	0.0492503392208521	0.0495656770249855	0.0515945597613457	0.0495562207329746	0.0485145773353438	0.0467625009409161	0.0430552638242897	0.0405943485304219	0.0409063268618693	0.0392782472878112	0.0369200544020247	0.0383109956778537	0.0393563253661703	0.0390920624543274	0.0386477721492356	0.0379469523647632	0.0394352182775533	0.0381764516405345	0.0432904915122169	0.039550196502967	0.0391998447103829	0.0394511805702901	0.0390870311874419	0.0442060909591833	0.0457786461592078	0.0431077957597145	0.0396566824449337	0.0430161676807425	0.0413311328070132	0.0420317185731242	0.0379738011212022	0.0416503779989692	0.0400202951682746	0.0423034594415174	0.0441421628271874	0.0410888965440087	0.0396877509158577	0.042933442487966
0.02714292891329	0.0244895510420471	0.022577793112087	0.0215792085513679	0.0193655409633298	0.0189458911945354	0.0179438913021937	0.0168995111600243	0.0153325760606112	0.0175489366382044	0.0174688501591049	0.0189774756563079	0.0192611930414341	0.0218226968063672	0.0210914316886669	0.0218477324767351	0.0201660611132625	0.0219827994813849	0.0243488533242641	0.0249471089242981	0.026822067453606	0.0288412755530535	0.026376230848901	0.0256448470022174	0.0263408466609901	0.0257517773794155	0.0252687574091282	0.0269576416444789	0.0305741764486698	0.0297164600388265	0.027660696126807	0.0253672896197722	0.0254914696695857	0.0262303303577768	0.0273029766021184	0.0249506259921633	0.0245477028897334	0.0273171190249798	0.0313303636444138	0.0329646531499981	0.0321821173195827	0.0310287608137877	0.0312480902323265	0.0310834410478063	0.0283994548038251	0.0290659740242193	0.0275959618505989	0.0291773834087008	0.0304842929989878	0.0295257719555493	0.0238170083329978	0.0248175613490212	0.0263180096424802	0.0268373776287805	0.0257012224265136	0.0264781593619371	0.0265423200088648	0.026310658494712	0.026293630483906	0.0260924368249012	0.0257269953359035	0.0233206717579361	0.0227762807971188	0.02186478581956	0.0213104402994085	0.0224621622500284	0.028910548030258	0.0286440868544641	0.0291160318240608	0.0302770618662199	0.0317993552190325	0.0329791017103313	0.0304716566058325	0.0297394130140351	0.0325338453634209	0.0341658773101607	0.0345795217152106	0.0362249806700757	0.0322932492884691	0.029853311242958	0.0290121426684257	0.0309334452858594	0.028154849823973	0.028699448955705	0.0314505118493959	0.0338452786485533	0.0355400175530262	0.0356589351215566	0.0375263122070548	0.0357851807531061	0.0360609447519907	0.0387666296239507	0.0417530845777433	0.0400899973553743	0.039077762613864	0.0398425880266495	0.0386622254023416	0.0364116638371521	0.0363169687785514	0.03233931753721	0.0314326842976025	0.0292757326859083	0.025254567204883	0.0259233320313091	0.022922324041871	0.023640278904496	0.0225937093874016	0.0233992548888411	0.0205267851066363	0.0221424808281663	0.0217727979105541	0.0241509951350686	0.0244554020874592	0.0264308314620601	0.0273025412966146	0.0273739944198229	0.0260936182050093	0.0270824508781717	0.0278445867303977	0.030259566212315	0.0323330154323191	0.0334016223050027	0.0317703290733979	0.0306826671178065	0.0320863426969342	0.0314972734153596	0.0303382642322761	0.0326730235062796	0.034467829230167	0.0358417078351097	0.0326902041021491	0.0330135336168442	0.0310734422016784	0.0308325114862546	0.0325122288089314	0.0313431025430862	0.0321580007378634	0.0342585407675251	0.0381800627419855	0.0397075458534837	0.0391945842997122	0.0380273518669882	0.0390082578238473	0.0391391982896203	0.0373839290257205	0.0358748241970211	0.0351748392070166	0.0367717844735309	0.0373030312803255	0.0361036540665198	0.031228641916516	0.0306372171205791	0.0322753627675504	0.0331039553954181	0.030229871637205	0.0296748785988651	0.0295059526293083	0.0292742911151555	0.0275580307421409	0.0286818015815384	0.0269781441183009	0.0249352518728281	0.0243908609120108	0.02326180302638	0.0222610415261723	0.021820785664832	0.0272203062174126	0.0264784112762655	0.0263222420899428	0.0286913945233329	0.0286720050402156	0.0293249215694332	0.0255485492041079	0.0248163056123104	0.0292671454123593	0.029905525713139	0.029656414313486	0.0317281360984462	0.0244141148025971	0.022971645788007	0.024011191065303	0.024696682630631	0.0232885188938026	0.0238331180255346	0.027899762891531	0.0298054793012943	0.0304549769083634	0.0321539222922544	0.0326152963617111	0.0295434979261437	0.0332967608074077	0.0345616285523713	0.0345878581037536	0.0321595287218342	0.0327861922689792	0.0335899060632792	0.0308846771263291	0.0301258194897552	0.029389747845958	0.0260100021101498	0.0251033688705422
0.0236164603874469	0.0226502940275768	0.0233898572019042	0.0219449430932609	0.0202078157317919	0.0195450599270889	0.0208636894345211	0.0214820109143199	0.0193051059415396	0.0210906675293412	0.0202412394273761	0.0220278355403034	0.0222707785991933	0.0205178270996222	0.019849208878702	0.0172750681823078	0.0174769737924015	0.0186601981365114	0.0196344765563015	0.0183634133829105	0.0206565614900274	0.0201083182856354	0.0178432771809199	0.0188700518516648	0.0210162744591422	0.0208918985057304	0.0205666536147705	0.0234145180617383	0.0244945963572124	0.0255410449384628	0.0241447561397372	0.0243132541671702	0.0235089785156699	0.023253948066583	0.0278107711097135	0.0271412590280781	0.0249252268810605	0.0250978793335194	0.0248888179487288	0.026450594538921	0.0252707778637107	0.0263894503768078	0.0269802587904655	0.0254689775472184	0.0252029333561304	0.0265924080424715	0.0242348275493653	0.0232979234996929	0.0232459900929953	0.0248842254788099	0.0233925215501944	0.0252013090177928	0.0256153580089285	0.0245372293909163	0.0225303081946985	0.0252481673459445	0.0250852215967209	0.0245536161943151	0.0237149550789199	0.0228073982694149	0.0227090777488676	0.0232987734534792	0.0258068732695861	0.024107456631505	0.0214107341518281	0.0206742513919537	0.0213708539384544	0.0215700767917117	0.0219533233598725	0.0198145371223532	0.0204728308093214	0.0201333089348378	0.0203287949491988	0.0191789529350988	0.0190328141308467	0.0173038107925122	0.020392088402087	0.0211729170444313	0.0228764447767051	0.0233680132349106	0.0212731483767183	0.0232549390616289	0.023561416757424	0.0220415798821565	0.0240611436462847	0.0236513458298806	0.0243741896493962	0.0275653709353401	0.0269264895464192	0.0292197241635026	0.0292571291548856	0.0297410585480663	0.0313270963295913	0.0298567716204823	0.0298794641215737	0.0309869989563526	0.0310872961197032	0.0316582318304377	0.0332577724722366	0.0304167943463159	0.0301125622755033	0.0298350097409034	0.0290132596589726	0.0273481789472264	0.0256110515857574	0.0257905923743618	0.0264185006591786	0.0288316801398052	0.0249168466110787	0.0263614968497541	0.0245305202944626	0.026592994005594	0.0253173379270764	0.0251599046918058	0.0244465538953454	0.0218724131989511	0.0250074723490936	0.0268468559992588	0.0282102241733013	0.0279203857170845	0.0297953781711972	0.0287027440059879	0.0281052058463678	0.029703019888087	0.0323210257058084	0.0338974150658028	0.029990093218198	0.0318733970581407	0.0339040765803786	0.0328731476457143	0.0310779634833068	0.0289258042988684	0.0285081146388795	0.0285013940738814	0.0343702619998633	0.0316830213948036	0.0296520949748492	0.0296165728255972	0.0299569606547376	0.0276409160266953	0.0281959128919328	0.0302037739599772	0.0306059108202735	0.0290076406746033	0.0310322920149785	0.0325354786144383	0.0302977915642693	0.0272103635425331	0.0273498886582674	0.0281552889364537	0.0272079759686554	0.0283763914979519	0.0308245502609236	0.0284931405134198	0.0270960522917017	0.0285504907821814	0.0289882098890211	0.0281355145577717	0.0264631019698288	0.0235174339549954	0.0256996203687138	0.0233881221211277	0.0260705739884744	0.0241455896570213	0.0207640195124846	0.0184910674886422	0.0199433106567665	0.019579996183846	0.0205257800781846	0.0184894801955128	0.0186130282720547	0.0184600327450432	0.0180742301890204	0.0158209405926532	0.013905946541514	0.0150293525710896	0.0192424479836736	0.0192845167704445	0.0198527017838623	0.0202355685858371	0.0189475599914006	0.0189910310710639	0.0198561048361513	0.020307270617415	0.0202054640854967	0.0212124474550872	0.0234534608539955	0.0242891526726573	0.0259770426447419	0.0275195856442826	0.0276649043733767	0.0282485543189598	0.0291003306983677	0.0290270231960787	0.0283869598924672	0.0284083915861794	0.0289811412366773	0.0287712483050674	0.0289120518717081	0.0270216749725512	0.025539206094451
0.0147425503872605	0.0163944550016974	0.0164605353279755	0.0170060113558664	0.0162781867968915	0.0150198847909073	0.0137751428569668	0.0150095739203246	0.015266858807722	0.0141053833667763	0.0148661898472519	0.014159611759685	0.0168728716778575	0.0170905591803104	0.0181423810178238	0.0176265681242515	0.0170240404231383	0.0184897167303423	0.0177136649365686	0.0179754319483271	0.0188563571971756	0.0173951583984038	0.0174793412072003	0.0172971750312016	0.0157612598491084	0.0129410665054547	0.0137748179780024	0.0140344269617348	0.014990179598481	0.0156868254320289	0.0151424344712116	0.0181852188947981	0.01910879256042	0.01910879256042	0.0193438815666221	0.0190505755600955	0.0217025656240509	0.0218143316882193	0.0234638857520518	0.0240309570159096	0.0242279309766779	0.0236237978577731	0.0292701371146616	0.0287511948945775	0.0271121618030764	0.0267068894729103	0.0274625300945338	0.027478610999517	0.0253787986404963	0.0242847446420053	0.0233729610732359	0.0237464295235092	0.0213644643003177	0.0209889768396757	0.0163696205620263	0.0160298507857801	0.0138157178965151	0.0131080419761601	0.0128051063863714	0.0121844193684394	0.0102802895278724	0.0117147058564833	0.0116036278388949	0.0121711447930823	0.0130908376731357	0.0147563502588115	0.0146257499971745	0.013446602664354	0.0144606550796457	0.0154478942293608	0.0158004565135645	0.0155778613362064	0.0163091264539066	0.0162897501682272	0.017081875688705	0.018425859849605	0.0193851756072362	0.0190419942257098	0.0180269633602431	0.0188779881147124	0.0183457584796436	0.0195080795081432	0.0188692317713045	0.0212491837415843	0.0222832009544997	0.0234353538632556	0.0238826602335264	0.0234609037244118	0.0190423247885252	0.0197944941277375	0.01964157377021	0.0193379297307272	0.019139199400735	0.0198487643996474	0.0210391844428591	0.0201187537949182	0.0181312937004553	0.017409351114945	0.0156756382224363	0.0163427919555383	0.0174822732136158	0.0191341778280527	0.017520465300541	0.0189388779184658	0.0186731243565617	0.0180938885199722	0.0156926070529972	0.0150259857524255	0.0165935103290297	0.0163306963606779	0.0163106741988091	0.0176738892443254	0.0199030897024498	0.0192887601491563	0.0195597533443253	0.0196843123890549	0.0202258467021174	0.0214550853277944	0.0210081107936724	0.0213495483579986	0.0208057631684857	0.0203860594970267	0.0204702423058232	0.0202880761298244	0.0182473463770484	0.0152545995663261	0.0152545995663261	0.0166597222104465	0.0180003584929002	0.0180003584929002	0.0175267604888468	0.0179383086872188	0.0200961013712352	0.021016038042297	0.0221714748629164	0.0214337043678534	0.0233048657894645	0.0229391584899931	0.0245887125538256	0.0244709361528236	0.0253527577784517	0.0247486246595469	0.0285871522948519	0.0296414468598742	0.0303266721933377	0.0301336606138784	0.0299693645644401	0.0289026874544206	0.0267608063086289	0.0256667523101379	0.0254626446617235	0.0245658998654639	0.0231019274344706	0.021639719390108	0.0177516282301589	0.0182734016422119	0.0138741113792776	0.0138393070938603	0.012163729801175	0.0124861247115106	0.0111826597270068	0.0111826597270068	0.0117667393229737	0.0113002588842752	0.012474201161003	0.0141816185954085	0.014465384343175	0.0151618326139454	0.0143002894256462	0.0144537771028136	0.0146250599940983	0.0139836834089018	0.0141007594736689	0.0142313597353059	0.016360414447791	0.0177555951888313	0.0171662308303952	0.0168230494488688	0.0156550982258745	0.0153956226771052	0.0130336991720431	0.0157081139605872	0.0131056874212759	0.0167811107568114	0.0181422415046632	0.0187753281669045	0.0185377868723156	0.0176243412813862	0.0137563095218081	0.0137016225972647	0.0142114580444401	0.0145084788610205	0.0161394424010216	0.0170622552589096	0.0181006708625788	0.017432300767644	0.0153847526583685	0.015225347399036	0.0141543903112303	0.0147031792004466	0.0159319577685611
0.0119899334895352	0.0119899334895352	0.0129032866478578	0.0123377325027842	0.0151708276337801	0.0142183912660824	0.0128987213520221	0.013561477156725	0.0142297600462184	0.0153273166698181	0.0145305827109985	0.014484165258158	0.0151889898496319	0.0158517456543348	0.0142640607482347	0.01329176569319	0.0108649075112709	0.0101739407183001	0.0103143974223426	0.0107159813559323	0.00900539521412987	0.00897459546919701	0.00749236526296571	0.00772745426916777	0.00787155472822063	0.00904966144485743	0.00898757049621771	0.00969524641657276	0.0123837761992828	0.0119430104196944	0.0120893945225138	0.0135610304872421	0.0135610304872421	0.0139738184181782	0.0131610673369209	0.0147252030346787	0.0146031944357826	0.0144364467384064	0.018386036054562	0.017678360134207	0.0159404315782608	0.0159496069727803	0.0143871100874009	0.0138129117876781	0.015105941415331	0.0172005985888936	0.0176966653188112	0.0158332799679236	0.0172877184584033	0.0158511483305832	0.0138300103616557	0.0132105456670353	0.0143204669527745	0.0134715419022477	0.0134715419022477	0.0129928856450805	0.0136940676584016	0.0116411643226719	0.0112223829148336	0.010789642126734	0.0117302683650602	0.011326456823156	0.0107658578200366	0.0101223425466092	0.0109508331440905	0.0107567576097146	0.0107567576097146	0.0115856814081167	0.011788140511593	0.0119482821360053	0.0111478081416174	0.0134448761561437	0.0136522379666492	0.0136676403332182	0.0144437310360935	0.0142060488522701	0.0134747837345698	0.012912246408392	0.0127776154755037	0.0137876985061151	0.0125913894190599	0.0132633351201776	0.0136457086600743	0.0122966561545228	0.0109517995967347	0.0125977015129342	0.0121853060209513	0.0123588275578471	0.0128059930388834	0.0128059930388834	0.0132514107170056	0.0138039315906911	0.0149801773492002	0.016616456734863	0.0173721669333125	0.018170495788757	0.0168885503033104	0.0178099930955093	0.0186214800277156	0.0179205649294374	0.0180940864663332	0.0180940864663332	0.018826593666382	0.018327338856467	0.0212985879992034	0.0192067640789405	0.0174818218347141	0.0177898686850991	0.0187647959375963	0.0180005649783883	0.0173470446738609	0.0170932529198005	0.0162153850355097	0.0173402118372834	0.0164152827358862	0.0160062777137861	0.013579419531867	0.0134092545023684	0.0135961286592513	0.0146390891780375	0.012928503036235	0.0119941158787142	0.0116800922197605	0.0127220374897184	0.0124720696159516	0.0127599150380124	0.0127455885394773	0.0134532644598324	0.0141010730207527	0.0153665490895517	0.0139104980197413	0.015139368816849	0.0158070349340668	0.0156850170364473	0.0146993568355163	0.0162634925332741	0.0154566362695183	0.0153540492190698	0.0189270991470138	0.0196574154123908	0.0193890989249034	0.0179286622509642	0.0176516778865078	0.015791967065862	0.016606299643287	0.0185983652966937	0.0186616912385117	0.0161631941767554	0.0167838811946875	0.0180037251456629	0.0147806115884195	0.0136577111480715	0.0142783981660035	0.0134715419022477	0.0142783981660035	0.0129928856450805	0.0143147546763336	0.0101993137430876	0.0112223829148336	0.0114310187119304	0.0117302683650602	0.011326456823156	0.0105604441903204	0.00923208125203331	0.0100787182148752	0.00986649631513868	0.00975844776089575	0.0101685901514595	0.008852345257545	0.00797082625650637	0.00801748023962146	0.00949260829736557	0.00962185925694689	0.00915978825987611	0.0113036136209672	0.0110659314371437	0.0103346663194435	0.0097721289932656	0.0101467670237226	0.0112713966774491	0.0107822507975381	0.0113753572396372	0.0108629189943636	0.0101987141536718	0.0090027614035717	0.00975840202519526	0.0108569548457203	0.00912552497661214	0.00912552497661214	0.00912552497661214	0.0101153336155517	0.0106678544892372	0.0100264779040407	0.0147710437229288	0.0150963461033871	0.0160202845118105	0.0152459179190785	0.0152215424151552	0.0158256550461415	0.0172417678287015	0.017714539018727
0.0074899677221869	0.0074899677221869	0.00783367387537199	0.00771628127041649	0.00734341654303668	0.00636727405908436	0.00636727405908436	0.00733850500437465	0.00690576421627506	0.00623237531934058	0.00618595786650009	0.00503244176555122	0.00503244176555122	0.00581327040789557	0.00689529569677744	0.00641506538288788	0.00838195357749023	0.00813413128693801	0.00945774547230807	0.00918440486286206	0.0103695541468569	0.0110327463712189	0.0109422153257958	0.0115835919109922	0.0115835919109922	0.0113653005948257	0.0106783290083322	0.00996829332275166	0.00928415829854215	0.00995947342427695	0.0108510995739302	0.0120525581405687	0.0108674088565738	0.00984592345210755	0.00925160683267087	0.00925160683267087	0.00861023024747445	0.00885454918505243	0.0105192260336191	0.00914289839406353	0.00945212303563096	0.00947901824442282	0.010164919365697	0.00817058806744485	0.00762619710662757	0.0088561483379641	0.00928888912606368	0.0109347910422632	0.0109347910422632	0.0120557402495461	0.0109008988481548	0.0108382288820156	0.0108382288820156	0.0120402304131124	0.0119891560993649	0.0102048034000534	0.0122250330084924	0.0133060478685056	0.0138815247038481	0.012465637804252	0.013086324822184	0.0134928970997172	0.0135549880483569	0.0131078225673207	0.0139146788310765	0.0135698935643915	0.0130747084715863	0.0135645955313057	0.0127083718286665	0.0126138477248065	0.0116508328019631	0.0110501679458998	0.00976672512326483	0.0090818774584051	0.0080116330112496	0.00943917629293744	0.00901186747678775	0.00837049089159133	0.00848538901186615	0.0083818299173902	0.00719344850766705	0.00595207447180302	0.00508240207897021	0.00642576804749241	0.00642576804749241	0.00718853861599554	0.00654716203079912	0.00511961874911128	0.00633129637605225	0.00663659659330584	0.00684451654319858	0.00734190913963698	0.00831805162358931	0.00893873864152133	0.00893873864152133	0.00847527894213495	0.00847527894213495	0.00962699783544191	0.010981930166169	0.0121354462671179	0.0121354462671179	0.0113858396372477	0.0105826271285023	0.00973396940584653	0.00845052658321155	0.0083849621945144	0.0083849621945144	0.00973574058741082	0.00930299979931124	0.00862961090237676	0.00918385830559951	0.00755254930265327	0.00755254930265327	0.00964103654942321	0.00863457459153515	0.00966643803769016	0.0113474051131164	0.0117409594077606	0.012946208749245	0.0128361530993367	0.0135754556005668	0.0142386478249288	0.0141481167795057	0.0135474519234425	0.0133116890799092	0.0130933977637427	0.0125413797809407	0.012929504476932	0.0115141043350222	0.0121694203738217	0.0123844784611516	0.0140675054150709	0.0134267470918934	0.0117638851022306	0.011169568482794	0.0118323242874969	0.0111909477023005	0.0118824321209147	0.0125901080412698	0.0117236158488896	0.00984912527842981	0.0114473087319175	0.0125607510597929	0.00999842185089712	0.0100546957461431	0.0103806268427118	0.0120517167796321	0.0132400981893552	0.0130707315270801	0.0130976267358719	0.0125434501905439	0.0124807802244047	0.0140432771097841	0.0140407177041236	0.0135237357390367	0.0127268818760556	0.014075934381607	0.0145619901092643	0.0147441763897635	0.0132661985415276	0.0159657541467226	0.015687478759396	0.0147007044803868	0.0142535389993506	0.0150603952631064	0.0139912875201548	0.0127571083616375	0.013246995421357	0.0122558181150262	0.0116258813276811	0.0105775920703908	0.00997692721432752	0.00869348439169254	0.00727737160913258	0.00725599238962604	0.00868353567131388	0.00787667940755805	0.00761485026996777	0.00686320316865701	0.00762618929576664	0.00719344850766705	0.00595207447180302	0.00564493940514806	0.00642576804749241	0.00676975720815723	0.00718853861599554	0.00654716203079912	0.00511961874911128	0.00511961874911128	0.00595174892844611	0.00664008138757959	0.00667915333493402	0.00893873864152133	0.00858328317550102	0.00858328317550102	0.00811982347611463	0.00768708268801505	0.00883880158132202	0.00896907965192107	0.0106159848952977	0.0106159848952977
0.0100206266761985	0.0101123366912144	0.00998601238651955	0.00954917290484002	0.0114217221337386	0.0108205902355694	0.010538035803973	0.010538035803973	0.0104945647243097	0.0117754816778936	0.0113134106808228	0.010750873354645	0.00843703815753151	0.00815448372593512	0.00809249848055769	0.00832979789027665	0.00693472202501789	0.00624987436015816	0.00658954560228333	0.00803003388876663	0.00825020049186949	0.00717547494597815	0.00655478792804613	0.00792189008014415	0.00792189008014415	0.00835463086824374	0.00717140652413387	0.00602758062757223	0.00707440625693467	0.00755187962057447	0.00831201869565442	0.00687153040917113	0.00600998722087185	0.00582381797504804	0.00582381797504804	0.00521744361913643	0.00571083276156423	0.00591946855866106	0.00850613350293229	0.00850613350293229	0.00698183450993005	0.00795387061080159	0.00655235495052523	0.00767742960288093	0.00815490296652074	0.00813488080465196	0.00813488080465196	0.00963610604609753	0.00960664336761134	0.00847187763998712	0.00768790566251733	0.00723645992028901	0.00764173225045511	0.00827557327682816	0.00742672866838005	0.00784132309111906	0.00756134019653759	0.00872124465632422	0.00990446900043409	0.00840324375898853	0.0076719786412883	0.00855188491042412	0.00853432391168808	0.00772746764793226	0.0080298712381212	0.00839330257061589	0.00819546209743622	0.00856957757309247	0.00840538798538177	0.00725746530091792	0.00607424095680805	0.00607424095680805	0.00655171432044786	0.00655171432044786	0.0070629304406305	0.0070629304406305	0.00695591937633869	0.00661004904258005	0.00610021359540466	0.00610021359540466	0.00724713225733517	0.00944063312351414	0.00957975175416531	0.0101422890803432	0.0114003841601246	0.0109229107964848	0.00971263436544017	0.0103974820302999	0.0117981519716134	0.0123404815945166	0.0146082159761848	0.0146082159761848	0.0134612973142543	0.0121952536793943	0.0121952536793943	0.0104034777275394	0.0110936509733839	0.0110936509733839	0.0114687330680317	0.0125296470734596	0.0122796101470185	0.0127335390746759	0.0117962851712358	0.0123417336238789	0.0132319949184548	0.0123291576772144	0.011821478626608	0.0124628552118044	0.0126117590194924	0.0140915334265692	0.0130087754115664	0.0124462380853886	0.00951171587034308	0.0105126042613817	0.00984868324227816	0.010544704771431	0.00867215554253244	0.00798730787767271	0.00832697911979788	0.00976746740628117	0.0106724816742438	0.0101245860904337	0.00893905680686546	0.0103061589589635	0.0103061589589635	0.0113014370732409	0.00945545692442808	0.00897438683256941	0.00935845665722888	0.0104566170388007	0.0105960690959486	0.00915558080946534	0.00829403762116606	0.00742302071048252	0.00689619074840128	0.00501925314912787	0.00577998094531429	0.00648200588483892	0.00724783149694813	0.00850613350293229	0.00698183450993005	0.00776778180705645	0.00775950171604547	0.00832203904222332	0.00948524122446442	0.00934202757017221	0.00934202757017221	0.0108432528116178	0.0108137901331316	0.00967902440550737	0.00889505242803757	0.00844360668580925	0.00884887901597535	0.00877504412199335	0.00889105630025911	0.00821686880136357	0.00899111231477476	0.0102745116103277	0.0115800462931194	0.0100788210516739	0.00934755593397365	0.00978029672207324	0.00977716041627385	0.00897030415251802	0.00927270774270697	0.00963613907520165	0.00943829860202199	0.00874837694756359	0.00872828781890575	0.0075803651344419	0.00455138017368263	0.00523622783854236	0.00571370120218217	0.00634732392618624	0.00618018474682459	0.00618018474682459	0.00607317368253278	0.00572730334877414	0.00521746790159875	0.00567953889866953	0.00489477449507046	0.00855788742970823	0.00855788742970823	0.00966481571670336	0.0109229107964848	0.0116305867168399	0.00971263436544017	0.0103974820302999	0.0121536074376337	0.0130961222161402	0.0146082159761848	0.0138273873338404	0.0134612973142543	0.0108875950749687	0.0111318706054536	0.0093400946535987	0.00936751209474021	0.00942960304337994	0.0103672224642055	0.0102449121255237	0.0100530248908367
0.00534492191009072	0.00363881553669777	0.00363881553669777	0.00430157134140074	0.00430157134140074	0.00430157134140074	0.0037747413793195	0.00439542839725152	0.0040514392365867	0.00225743826575246	0.00181027278471622	0.00307574885351517	0.00418267714051031	0.00407462858626738	0.00473738439097034	0.00456801772869517	0.00509484769077641	0.00509484769077641	0.00509484769077641	0.0049516340364842	0.0049516340364842	0.00634489736613664	0.00696558438406866	0.00622693827735094	0.00669511894979146	0.00735787475449443	0.00738445607441817	0.00741789689407161	0.00689106693199038	0.00720282911983066	0.00802688285783508	0.00754940949419527	0.00807623945627651	0.00908425211817015	0.00809626111868381	0.00803150215367335	0.0064563931942377	0.00703768176462148	0.0052668074274535	0.00536066448330428	0.00536066448330428	0.0069242409880107	0.00790144329090925	0.00867532676783581	0.00814849680575457	0.00662436024293821	0.00664135475784405	0.00617928376077327	0.00746277772366436	0.00688148915328058	0.00688148915328058	0.00726103660088671	0.00664034958295469	0.00507677307824827	0.00378780858750943	0.00441827081929906	0.00441827081929906	0.00533820749036085	0.00481137752827961	0.00481137752827961	0.00577490837424433	0.00485871839290756	0.00485871839290756	0.00485871839290756	0.00447917094530143	0.00577920252774227	0.00656003117008662	0.00471117917097215	0.00508727234498958	0.00483009147863076	0.00507791376918297	0.00636038435288777	0.00539685350692306	0.00502954952536874	0.00537353868603355	0.00537353868603355	0.00537353868603355	0.00452067258462895	0.0050087712031112	0.0050087712031112	0.0050087712031112	0.00359037477678467	0.00334255248623246	0.00206008190252766	0.00314949259787987	0.00314949259787987	0.00344688002241147	0.00392435338605127	0.00557865548026874	0.00683759637262545	0.00637552537555468	0.00637456249051098	0.00637456249051098	0.00637456249051098	0.00752207947052423	0.00786606863118905	0.00677665793583684	0.00901782438770732	0.0083764478025109	0.0078989744388711	0.00624467234465363	0.00506539593334192	0.00506539593334192	0.00572815173804488	0.00492225835933276	0.00548479568551061	0.00557865274136139	0.00495796572342937	0.00461397656276456	0.00281997559193031	0.00237281011089407	0.00474521446668816	0.00474521446668816	0.00421838450460692	0.0052999217171482	0.00513055505487303	0.00623867358733805	0.00623867358733805	0.0061536096248	0.00553292260686798	0.00553292260686798	0.00717956897289812	0.00754687295445244	0.00680822684773473	0.00727640752017524	0.00785769609055903	0.00849257460688319	0.0079991854644554	0.00747235550237416	0.00689106693199038	0.00793409423753089	0.00880750457397673	0.00933433453605797	0.00983251175077622	0.00935435619846527	0.00928959723345481	0.00771448827401916	0.00829577684440294	0.00652490250723496	0.00599807254515372	0.00714558952516697	0.00929045460025718	0.0105766296273479	0.00972898669199829	0.00920215672991705	0.00767802016710068	0.00716818471992529	0.00670611372285451	0.00670611372285451	0.00740831911536181	0.00740831911536181	0.00740831911536181	0.00716717954503593	0.00507677307824827	0.00512682513944852	0.00403872337169293	0.00533820749036085	0.00533820749036085	0.00481137752827961	0.00481137752827961	0.00614221235579865	0.00485871839290756	0.00485871839290756	0.00485871839290756	0.00523481156692499	0.00577920252774227	0.00656003117008662	0.00471117917097215	0.00433163172336602	0.00483009147863076	0.00636038435288777	0.00636038435288777	0.00539685350692306	0.00537353868603355	0.00537353868603355	0.00537353868603355	0.00537353868603355	0.00452067258462895	0.00420191493935538	0.0050087712031112	0.0050087712031112	0.00359037477678467	0.00334255248623246	0.00286693816628349	0.00314949259787987	0.00379086918307629	0.00344688002241147	0.00467999400767484	0.00635948412261309	0.00683759637262545	0.00637552537555468	0.00556866911179885	0.00637456249051098	0.00637456249051098	0.00690139245259221	0.00786606863118905	0.00822666974600626	0.0086738352270425	0.00758529316080985	0.00710781979717004	0.00545351770295258
0.00482870015418618	0.00482870015418618	0.0042843091933689	0.0052551716994365	0.00380819691080122	0.00421102139420744	0.00485239797940386	0.00523194542700999	0.00612220672158591	0.00552154186552267	0.00552154186552267	0.004542362259241	0.0050357514016688	0.00468029593564849	0.00468029593564849	0.00431009828564413	0.00431009828564413	0.00358807959490853	0.00330215847573242	0.00330215847573242	0.00392284549366444	0.00365327121702054	0.0044089118386441	0.0040167128094511	0.0040167128094511	0.00406771462784058	0.00473047043254355	0.0041298055764803	0.00477118216167672	0.004892303109671	0.004892303109671	0.00415730019604455	0.00508144219018611	0.00384006815432207	0.00384006815432207	0.00356190089633831	0.00458011216706159	0.00439117667226462	0.00439117667226462	0.00561560014614095	0.00555551213132831	0.00524374994348802	0.00524374994348802	0.00590650574819099	0.00498236375404943	0.00578922001780526	0.00830047030699626	0.0086038255857008	0.00820630133290954	0.00785084586688923	0.00785084586688923	0.00845481310908523	0.0073382973957544	0.00886519733605773	0.00927046966622383	0.00902649526935918	0.00902649526935918	0.00888239481030631	0.00683321551818609	0.00605238687584174	0.00653981839037475	0.0071023557165526	0.0082881232625663	0.0082881232625663	0.00755685814486607	0.00661124677494653	0.00643154213815247	0.00652259617748955	0.00718535198219252	0.00750750624296082	0.0076255790806022	0.00716350808353143	0.00658221951314764	0.00549285222488855	0.00481692012605024	0.00486792194443973	0.0041366568267395	0.0041366568267395	0.00424973723404546	0.00373990178687007	0.00350988677026669	0.00391899762719861	0.00313816898485426	0.00370070631103212	0.0041334470991317	0.00479620290383467	0.00428636745665927	0.00434264135190524	0.00434264135190524	0.00434264135190524	0.00396709564166073	0.00420692366477578	0.00498132964219644	0.0047598999716716	0.0047598999716716	0.00419736264549375	0.00376462185739416	0.00370253090875444	0.00456407409705372	0.00447324468816587	0.00447324468816587	0.00482870015418618	0.0042843091933689	0.0052551716994365	0.00410016982345081	0.00421102139420744	0.00485239797940386	0.00523194542700999	0.00523194542700999	0.00552154186552267	0.00552154186552267	0.00506919222132224	0.00506919222132224	0.00520712589772972	0.00520712589772972	0.00483692824772537	0.00483692824772537	0.00411490955698977	0.00385308041939948	0.00382898843781366	0.00382898843781366	0.00418010117910178	0.00488777709945683	0.00525121869188739	0.00526877969062343	0.00535667911857942	0.00535667911857942	0.00541877006721914	0.00606014665241556	0.00618126760040983	0.00618126760040983	0.00590833568385417	0.00637040668092494	0.00512903264506091	0.00552123167425391	0.00489084396193541	0.00603107313027818	0.00657340275318144	0.00599211418279765	0.0059500453960267	0.00715644964186134	0.00684468745402105	0.00684468745402105	0.00750744325872402	0.00658330126458246	0.00830918651961253	0.00990140781752929	0.00981256406704083	0.0100157046703128	0.0091827758406527	0.00845151072295247	0.00832421284744825	0.00827185498794489	0.00921746635786443	0.010468646393104	0.0102246719962393	0.0102246719962393	0.00941781573248347	0.00756932124799544	0.00817050027378365	0.00813110182623542	0.00861980425843127	0.0102989609468728	0.0105368369221452	0.00907430668674474	0.00860265884445378	0.0076160979439039	0.0081052886532543	0.0084274429140226	0.0084274429140226	0.00854551575166399	0.00808344475459321	0.00658221951314764	0.00549285222488855	0.00481692012605024	0.00486792194443973	0.0041366568267395	0.00505659349780129	0.00424973723404546	0.00373990178687007	0.00350988677026669	0.00391899762719861	0.00370070631103212	0.00370070631103212	0.0041334470991317	0.00479620290383467	0.00428636745665927	0.00434264135190524	0.00434264135190524	0.00434264135190524	0.00396709564166073	0.00420692366477578	0.00474150161908139	0.00452007194855656	0.00452007194855656	0.0039575346223787	0.00412545869034236	0.0034627028856394	0.00432424607393868	0.00337187347675155	0.00337187347675155
0.00346720643337257	0.00346720643337257	0.00346720643337257	0.00346720643337257	0.00320972295883571	0.00201011290865306	0.00201011290865306	0.00201011290865306	0.00202276449023993	0.00202276449023993	0.00136000868553696	0.00177879009337527	0.00224086109044605	0.00167832376426819	0.00202231292493301	0.00202231292493301	0.0024550537130326	0.00265044623892973	0.00265044623892973	0.00265044623892973	0.00355693488671086	0.00401900588378164	0.00401900588378164	0.00401900588378164	0.00313815347887255	0.00313815347887255	0.00333855527902501	0.0039198438494088	0.00376965749290559	0.00316899263684235	0.00316899263684235	0.00427244021910955	0.00381311705236466	0.00336595157132842	0.00290388057425764	0.00422910017741927	0.00422910017741927	0.00473893562459466	0.00419454466377738	0.00419454466377738	0.0046000343782492	0.00431747994665281	0.00431747994665281	0.00321403236438562	0.00282183333519261	0.00282183333519261	0.00282183333519261	0.00255084014002366	0.00246852017627716	0.00246852017627716	0.00195868472910176	0.00195868472910176	0.00200968654749125	0.00199377076870325	0.00280931417189935	0.00325647965293559	0.00325647965293559	0.00325647965293559	0.00325647965293559	0.00355350046951602	0.00410431551957027	0.00410431551957027	0.00410431551957027	0.00440602086264151	0.00435501904425203	0.00387754568061223	0.0038176428990397	0.00386386656043126	0.00386386656043126	0.00469057948907363	0.00515022500207982	0.0048208421019638	0.00380795605483878	0.00463423793339382	0.00463423793339382	0.00463423793339382	0.00383914344789477	0.00383914344789477	0.0039172542988189	0.0034238651563911	0.00408662096109407	0.0032599080324517	0.00487448814734374	0.00427026200682498	0.00470300279492456	0.00449740793430154	0.00449740793430154	0.00511809495223355	0.00578085075693652	0.0062135915450361	0.00537984007248841	0.00537984007248841	0.00604259587719138	0.00657945012267107	0.00496487000777903	0.00463197727165179	0.00501152471925792	0.00395809691322632	0.00545460419047697	0.00483391717254496	0.00417116136784199	0.00473369869401985	0.00430095790592026	0.00430095790592026	0.0036382021012173	0.00284386438120074	0.00284386438120074	0.00362826243958675	0.00324871499198062	0.00324871499198062	0.00299123151744376	0.00215748004489607	0.00303833244980516	0.00281978428429212	0.00281978428429212	0.00281978428429212	0.0032525250723917	0.00344791759828884	0.00344791759828884	0.00344791759828884	0.00351504173584073	0.00396220721687696	0.00442427821394774	0.00434116014454994	0.00346030773964085	0.00346030773964085	0.00439197465749354	0.00439197465749354	0.00454052243977773	0.00422241201531087	0.00422241201531087	0.00571805862677107	0.00486653643083318	0.00441937094979694	0.00473812859507052	0.00473812859507052	0.0049603652951195	0.0049603652951195	0.00535855056957719	0.00462728545187697	0.00453938602392098	0.0047502207347524	0.0047502207347524	0.0036467731524852	0.0032545741232922	0.0032545741232922	0.00376440957046759	0.00344565192519402	0.00290126096437674	0.00337873432801654	0.00286889888084115	0.00243615809274157	0.00248715991113105	0.00247124413234306	0.00373395301657539	0.00373395301657539	0.00373395301657539	0.00373395301657539	0.00454080928033122	0.00504385988028085	0.00458178888321007	0.00458178888321007	0.00410431551957027	0.00410431551957027	0.00435501904425203	0.00463318630223579	0.0038176428990397	0.00386386656043126	0.00424341400803739	0.00469057948907363	0.00469057948907363	0.0048208421019638	0.00380795605483878	0.00463423793339382	0.00463423793339382	0.00463423793339382	0.00383914344789477	0.00467289492044246	0.0039172542988189	0.0034238651563911	0.00408662096109407	0.00421173234264077	0.00421173234264077	0.00360750620212201	0.00404024699022159	0.00340191134149899	0.00340191134149899	0.004022598359431	0.00468535416413397	0.00468535416413397	0.00428434347968587	0.00494709928438883	0.00494709928438883	0.00614670933457149	0.00453212921967945	0.00419923648355221	0.00457878393115834	0.00395809691322632	0.00462085271792929	0.00483391717254496	0.00417116136784199
