0.946016663328073	0.938160601567731	0.943086559701092	0.946996208333229	0.943962759948923	0.946632863009101	0.942112257246123	0.927796484127345	0.935644400973173	0.935165179775616	0.946950924437357	0.945953868972349	0.935914372049029	0.948204893744564	0.951882321807203	0.952769905239772	0.953588821467195	0.967181527788743	0.951642776260078	0.954618255380587	0.970185754867337	0.958171543381947	0.969355986531116	0.989926883922282	0.980621829419975	0.988115668765238	0.993217991312709	0.987201192940176	1.00583799828104	1.00540968907648	1.00524825713144	1.0135933217648	1.02289592195083	1.04241075775341	1.05366485507197	1.04230471340244	1.03691749244016	1.05493249506576	1.05664966162465	1.06498587294097	1.06646066074958	1.05929102077477	1.06888201750488	1.07315756397484	1.07114336682288	1.08683235686088	1.09652972956565	1.13956332346444	1.16367431090221	1.17008260286737	1.16781893648068	1.17744917763987	1.19115677572941	1.20253918575018	1.21177590692832	1.22778869376534	1.22139878178026	1.216515573481	1.22443587918749	1.24389360683981	1.22259646635135	1.19998926607856	1.22282906043466	1.21982861514346	1.21188710423108	1.23811630017592	1.23339177359826	1.24761254577995	1.2500675962186	1.25602555724024	1.27120503877655	1.25730918743586	1.24499651024322	1.23788088402515	1.2692154431777	1.23777272265132	1.23993072788488	1.22671862393007	1.21352143968487	1.21110857497129	1.1963855050656	1.18465383531825	1.20618968311046	1.20841055292191	1.19525078858592	1.17832978177753	1.18084151398142	1.14915126497375	1.16044273642117	1.17913158465722	1.18041931761351	1.15106384780184	1.15451252733242	1.14925938464609	1.16598423727993	1.13839235436612	1.09931825529107	1.11253310682045	1.11478544936762	1.1079121874347	1.10431541185766	1.1040814489562	1.08183760295366	1.07102564495452	1.08864006785492	1.07369650083488	1.07963284748762	1.06631655104048	1.04685424103504	1.05705855641985	1.02824039306159	1.02643755838563	1.02923515766265	1.01052371414318	1.01587829014596	1.01135550471821	1.0046493604231	0.99794528911953	1.01910802357975	1.0014802818505	0.98851980661674	1.0056061557269	0.991847013316642	0.990906626112482	0.994629032982086	0.986602160606348	1.0037877843958	1.00742126885121	1.00006277820339	0.980908846123248	0.992194967692321	0.984698253025774	0.995818145444593	1.00493182811354	1.00603176639729	1.01761445666725	1.02818999375612	1.01377492640886	1.00501682884688	1.01789316117468	1.01527737969488	1.04297729069684	1.02973154089139	1.02647238643224	1.04193127980612	1.04823971209897	1.07713679856647	1.080287141467	1.06293740062475	1.06479767489473	1.08464475843447	1.10551779888312	1.10300067151443	1.10053212026751	1.09166486064168	1.08198569991148	1.09753358540096	1.09590889611251	1.10178641182783	1.10660915288012	1.14498518054102	1.16808011487148	1.15959218223915	1.17030013881724	1.19893405775292	1.20303780909332	1.21401059365166	1.23617446665233	1.23114229114409	1.22671902494282	1.21915069859315	1.22063189323341	1.2273424376206	1.22595105861594	1.23087195222823	1.23281851993521	1.22066033512432	1.23196031085481	1.24508541082201	1.23945110106952	1.2553456050652	1.25915403927418	1.26397558789912	1.28106118985997	1.24164828387403	1.23601808921988	1.24949668447118	1.2567522208885	1.24703017442652	1.23126263081905	1.20819086688868	1.19847416400665	1.19262327658617	1.18109670481593	1.16765601317015	1.18307677868161	1.20046126823039	1.1715758911981	1.167268979397	1.14324976650053	1.13923769959699
0.967673834195724	0.964349449272472	0.968367862993291	0.991488908070356	1.00644619528255	0.999330645578516	0.993297365319891	0.977959278143128	0.992730294246267	0.993725377381632	1.00876477764234	1.02499909982947	1.03733129205088	1.04484899251919	1.03177147363972	1.01548553606082	1.04466602531357	1.05197428281777	1.0590760995875	1.07810767108761	1.09340215670451	1.07682339751593	1.07642232457894	1.06527021521437	1.04145978225946	1.03382437361694	1.00763608080148	1.00081751608648	1.02248913936588	1.01064152072429	0.981707147618369	0.993407745159529	0.97477920164301	0.96679163061361	0.989531457443427	0.983526850326129	1.0119675937128	1.00836408541554	0.99879076890654	1.00553482067887	1.0334080920463	1.00161291234397	1.01177420104061	1.00778593794266	0.997635308193387	0.986026189542152	1.02365773342641	1.01920427080381	1.01295727865127	1.01594750122252	1.04126331936684	1.0474398117359	1.08320209273436	1.08141854987444	1.07713347193636	1.08357063994255	1.08170362212817	1.09374052334234	1.08942329049421	1.09859648475898	1.10959712515573	1.11446750671004	1.12584744272829	1.1291854724557	1.13697035245914	1.13785216073838	1.16987793106999	1.16136181459593	1.1786471927239	1.1688028881178	1.17074648390439	1.1628513747475	1.13405905865051	1.13838656774837	1.13216403935556	1.12740232948549	1.10758538065004	1.10271597636665	1.08504151363125	1.06689524219261	1.09387193439104	1.09108265944496	1.10009340616031	1.1253553737117	1.14143558172837	1.1758928506421	1.1391373952168	1.19447592635967	1.20348080574597	1.20891690613447	1.22283523860429	1.21529126149203	1.22004751810825	1.20067893417803	1.18223895665589	1.18937852260966	1.16043994248489	1.14357925941122	1.10697046625387	1.07431121728368	1.03440830245081	1.00800661986054	1.01010164596509	0.992937241762607	0.995487680927615	1.00569473602339	1.00912307881504	1.00541071672854	1.01098021505619	1.02035914433035	1.00793339760433	1.04427089481112	1.07064387461753	1.07650075837043	1.06172204227022	1.07770045586786	1.09244446240004	1.09506444412638	1.09610895115128	1.08826416314115	1.07307534924449	1.0760423944294	1.07266515107982	1.0890164307253	1.11092223456213	1.09624031657894	1.12297064416522	1.11397309249469	1.09677353483744	1.11437044169182	1.12503395936074	1.14598387981476	1.1701074934573	1.15946710845013	1.15506054676304	1.1516075176152	1.1423132260396	1.11307666698924	1.10722502083295	1.08672914578071	1.07536761545984	1.08185615820779	1.04899641923064	1.02935852660341	1.04101500840535	1.03905811267066	1.02606637557153	1.03531528640653	1.03752267732271	1.04911907540234	1.05936097311799	1.06193897227525	1.08324022544216	1.08209349823672	1.08232111791239	1.07998669442774	1.07481561448392	1.06519439494876	1.07850228805707	1.09581104924377	1.0863784275138	1.07590549267873	1.08782836768272	1.11521162624586	1.13317818766706	1.14427067411556	1.14476315591339	1.1456392674782	1.13106673495202	1.14540423349133	1.11876174791129	1.13258163640171	1.14076744704605	1.16605225280712	1.16348594706952	1.17035556098782	1.19339108264786	1.17292835565603	1.19737544147049	1.22833737645882	1.20123372265136	1.21233166732286	1.19791940767292	1.21397482252541	1.18755132213733	1.16139969139361	1.18592746436576	1.15279219495246	1.14754961435249	1.14661223634573	1.11697895572829	1.09553573294554	1.10470418089068	1.11596113188496	1.12117436883425	1.14321193900867	1.15488345223796	1.17113979360654	1.1825704192222	1.19303114091011	1.21785512524151
0.836465488666993	0.825655712105961	0.807612686827216	0.814915828044432	0.813145502547547	0.81513392807206	0.845263558521156	0.838750537770129	0.846406739485432	0.835531810934328	0.837675414409084	0.867367809795329	0.874816585256333	0.882730488997552	0.889384320549165	0.902858977738585	0.898633872420995	0.913983739755264	0.8961664667385	0.895521863945581	0.883483061765658	0.861198114840133	0.858551455629645	0.85083507458301	0.828086032009834	0.82105102682684	0.83319317077349	0.823370015720612	0.826838720155686	0.832651458781292	0.82733074609238	0.836733454679872	0.833912714079983	0.831494834878294	0.869082875876867	0.881323304028069	0.893583820929339	0.911478486554711	0.900483038154477	0.89488297954412	0.897502872648322	0.907394331076365	0.91347657431998	0.943183426308789	0.936417519318231	0.965635239167229	0.988450689587532	0.970444527454575	0.98763347136679	0.989532394673158	0.99908343793187	0.994969005407712	1.00715484193015	1.02198001386527	1.00167090675919	1.00508054249577	0.982790882791551	0.998499759542158	0.974734682716206	0.95712122887386	0.97778881565611	0.970747169441807	0.995023337666041	0.979278405458626	0.991984863206457	0.969752474466699	0.992229358712364	0.97623265638701	0.983319171598422	0.993484031383233	1.00493431824675	1.01190206344324	1.04331577924056	0.997925615110058	0.990955543993912	0.968096472773745	0.970413286454239	0.983988904054233	0.98312031448202	0.981752115205155	1.03344445938608	1.01417028504773	0.992963648043608	0.972729448365924	0.979952970203625	0.968908731240618	0.995894387099195	1.00864051072237	1.03069647509404	1.02176064958913	1.03121234058456	1.03627973580605	1.0253475597985	1.00205295998891	0.996544746759101	0.995849759285506	1.01759305046239	1.03406676950873	1.01754673900965	1.01050111010087	1.00065533148372	0.999123722964314	1.0098738645447	0.990170401801362	0.983488322022426	0.975952583423759	0.947932389938641	0.982386642426646	0.996459702437451	0.972264812328695	0.966764394094358	0.961498793386604	0.970818920648557	0.948651112893845	0.937251153363461	0.932513335684509	0.946693117357171	0.931738544580684	0.943432806862198	0.952999434355178	0.939389215785224	0.954469834859014	0.948377577568404	0.953868921242292	0.974445795381106	0.988994818988606	0.99637153562639	0.99782818747403	1.01253041377512	1.01991759069395	1.02205172461786	1.01037625552635	0.996553910343944	0.996183998165054	0.965067213327764	0.970832882722232	0.956968630114863	0.912500583389626	0.930568425639523	0.938255536806933	0.92678245101848	0.931417325202773	0.943313857357384	0.924046438837629	0.937050403593384	0.942243110301103	0.946916518753968	0.967828250272971	0.981523156468042	0.998929018744393	1.01421702707876	0.999949761450618	0.978073990661485	0.983375202142896	0.998449277541805	1.00317894270381	1.03757681296307	1.02025308553597	1.05120148297712	1.05533494692735	1.06470890837652	1.07872817596323	1.06224634253633	1.06917231842952	1.05622514062829	1.08472276346129	1.08158993540417	1.08031580862395	1.06349917376464	1.0626509918666	1.03805145773201	1.04335536945064	1.0209095465137	1.03160794521727	1.03802467787384	1.04673701415554	1.03488352822234	1.04319781883211	1.02617281346926	1.04203834709371	1.02739293888305	1.04029365694333	1.05870247239648	1.07161888850045	1.07759206593593	1.08684517448296	1.05084174001453	1.03724909656172	1.02126454844291	1.04643951093107	1.04648869772933	1.05166125862264	1.06725133705075	1.08635553048924	1.08217137707295	1.05080726849978	1.04304076939216	1.02702412073347	1.04390762126997	1.04984861443532	1.07950745669881
0.769628976225625	0.784353427115834	0.788573694358134	0.75856604329679	0.734328523363081	0.727708578155676	0.751290985272136	0.785830063839629	0.753350631695186	0.755314191957094	0.757479073253587	0.751780785549114	0.754364472329826	0.75292846592819	0.747234981194064	0.757756819535602	0.764436153577716	0.773970834195685	0.772877429249945	0.743837022594405	0.72806174988631	0.761539085640179	0.765029277401901	0.742363478381485	0.71964415417112	0.719326787214191	0.707036950884588	0.708955529817179	0.708919009152322	0.695686874043935	0.703208305104609	0.714805783224227	0.736983119624677	0.74898958750035	0.726993906883619	0.733438895126896	0.753210480816647	0.759513270918268	0.744935644232511	0.762748209334089	0.777841446833011	0.791972179708498	0.821538826181337	0.799526469302175	0.788754018949721	0.773965463324979	0.762270405107416	0.779134786967848	0.772340147175732	0.791574949301172	0.810992540981821	0.828264106117726	0.820079744722463	0.818008352376141	0.796425053488604	0.77968445135819	0.794587973840291	0.8160957731872	0.806567326331692	0.805890448370776	0.830904449691606	0.84005004938508	0.830131526335903	0.817699457480022	0.818969452542122	0.826953026298179	0.814013575959265	0.835258125924163	0.846488532581295	0.868022676473233	0.882732185217733	0.886896961801384	0.886183046039906	0.887743255743299	0.883862934911009	0.880347890456679	0.893194532699452	0.888235980143397	0.891740016836992	0.89177522209077	0.884167295609471	0.854831595562729	0.852603619492625	0.854988648636737	0.863067466728889	0.861655229584494	0.842711280061472	0.851398442632586	0.843422050550482	0.837525091770131	0.828253004989102	0.839702739819449	0.844881731862574	0.846520271036317	0.869221273766319	0.857448178943016	0.848421452140583	0.844330322251534	0.843462751957037	0.849519643315708	0.855401611150891	0.844477468986569	0.85942429617648	0.882152940692608	0.87194688491372	0.880810266434564	0.891625800645643	0.873461125430123	0.874842254802199	0.886182871936066	0.889048556007882	0.892909056716438	0.892232635854904	0.906678840702426	0.906954111314828	0.901491291537665	0.871055933849181	0.861654467494126	0.856969100114222	0.873615097631141	0.897756257036017	0.864334801822504	0.84803411440383	0.862975943174893	0.855998408286196	0.856391619411066	0.856839349252417	0.84681288581217	0.863677635148127	0.872144699236724	0.870557690786134	0.854177684680329	0.839599977038913	0.843012337731128	0.862752680067344	0.859478525245269	0.841394694726949	0.822552877056012	0.827429297098719	0.821228764406049	0.822312873557	0.80995310880571	0.784057575041495	0.809188394400908	0.830208550423789	0.840420988283879	0.854955769340064	0.816521745734046	0.840492399927878	0.854445917713051	0.852625212863302	0.854868025491239	0.879000027197485	0.873767712537843	0.910318739862514	0.915099391368448	0.894019277401182	0.878044640625401	0.859242108227507	0.869451163419115	0.873359628662309	0.86429875199594	0.893021646083288	0.913797581643269	0.89792140461552	0.896205726734168	0.898652187398917	0.877945004036001	0.877752690447694	0.890319364081033	0.884276681719173	0.894813433600919	0.901510901607053	0.923688228635435	0.917155181645229	0.902758848748253	0.894114133502272	0.898782284391181	0.903084431686774	0.900280592353899	0.915848961598085	0.930156674625808	0.938251608527184	0.961481892357959	0.962535060936899	0.955773917438315	0.956198956742512	0.937174062946871	0.948404996716187	0.934677224643149	0.938893189048492	0.941836216838634	0.932404197760237	0.929063063808294	0.882708903296395	0.887143506568549	0.907346884072434	0.908705370386006	0.892840084343978	0.892406579678082	0.888932818426232
0.650438668769741	0.646372785348882	0.652020060986277	0.655632140555778	0.655816763240442	0.657028994587615	0.654190048044067	0.656306283009383	0.641142074123408	0.635088697043208	0.632133159981115	0.624538738679149	0.60758847507615	0.605090061135051	0.603522260715982	0.623158143068427	0.639902397681484	0.638776010897584	0.638822568677734	0.642867147410123	0.635842944051515	0.654779716549526	0.651276836332278	0.666303744192521	0.666553377257861	0.674388798130132	0.683435695420887	0.674063851626782	0.650510176497161	0.650581723727955	0.655219244745393	0.64779231717751	0.648494742310562	0.644710123760096	0.63871873907077	0.650039996530716	0.63234204735128	0.642838244215687	0.641979482918528	0.639087125726046	0.628770087058808	0.626562706891597	0.604502627700087	0.611616810152739	0.620501747139364	0.638232056453155	0.630193598312632	0.635837009119786	0.636189501510701	0.632970056184558	0.637297766059294	0.637261738238441	0.642880112079097	0.660363573226396	0.661140655645852	0.688240031609747	0.692364756493836	0.692347058838877	0.693686392370154	0.70102253167065	0.703460557931712	0.695226307891101	0.701805436781291	0.708499297990199	0.710596559042893	0.693712787237863	0.685707178484151	0.685569969896771	0.686391020111497	0.678741242570037	0.666022358890693	0.673436252230664	0.684542426024428	0.664317323162366	0.666847429656912	0.661234818343343	0.667991340987188	0.675025267939818	0.690915047663609	0.691334472148457	0.696478469010694	0.692107048726019	0.686702844856394	0.699757251829603	0.704638753924077	0.702523204699153	0.71406228471273	0.716876492105082	0.725255214723314	0.710687196415523	0.717380019284988	0.711001939537762	0.718022621448592	0.717356739285805	0.706208073274734	0.718004312259774	0.721894367589181	0.727602773677757	0.715175181384682	0.744777329453946	0.737103216162083	0.7423198772761	0.75143284712356	0.753014148386075	0.7495497589325	0.751929771286652	0.744513969288444	0.755946733329533	0.757661753999282	0.752119070774957	0.759451387091004	0.750003645167231	0.761306998296057	0.762882971377517	0.771334613814966	0.759721804272939	0.76184387910687	0.77439405718644	0.787713210637423	0.779325779133874	0.776967640613749	0.750063234658981	0.759576243339826	0.757085397037707	0.744726288099412	0.720961423392103	0.728247148834672	0.722873539030611	0.743076216534663	0.747239258714592	0.760744131807649	0.752911174556377	0.751093357133606	0.753857769983799	0.772245615836946	0.748245372074719	0.780103921244343	0.772358412231819	0.777086017101707	0.788337019761144	0.767617852195453	0.754950190803875	0.751839132818469	0.75469259316652	0.74877335899547	0.73134951360452	0.724958085796093	0.714958459001067	0.720333750598218	0.720501225290658	0.71415791912179	0.721593114692513	0.721697948139266	0.720226378905505	0.722266661079771	0.701060599335215	0.707555069057725	0.720399638578765	0.733705969647635	0.716775043516309	0.733737059231727	0.7313748457988	0.725447994712635	0.740809025514578	0.731317904991847	0.750956661912801	0.752814355079785	0.739075408737803	0.781942954249228	0.776762980316906	0.770518805848527	0.772813625699643	0.774384093371563	0.78168759429162	0.779122749967467	0.7867067748239	0.782201979922164	0.770053106420565	0.753648897491208	0.755522962479305	0.746650069132016	0.740345595631344	0.724793741338368	0.721670420323781	0.743135763489614	0.723072941467995	0.714683058616244	0.72673707561419	0.709794758511881	0.719168436381616	0.736375888071623	0.751480857421288	0.748564179590313	0.746426311579731	0.75138704604904	0.759402651643669	0.767999933446667	0.751201565489473	0.771454946054519	0.788714271252419	0.790854322806482
0.484543937815128	0.484776409377194	0.480682635216197	0.465826312367121	0.471723147109585	0.473374548347524	0.477493116655587	0.480015343511206	0.468797919120639	0.478034641409964	0.482224745134517	0.491790933052942	0.481012364096914	0.499276967907404	0.494635354953134	0.491107229716332	0.504751258623122	0.501537239371102	0.509412450795294	0.501816862763373	0.512717804903474	0.510518602248649	0.494785682995012	0.503006361396119	0.485682553447156	0.492382325093183	0.459649444172221	0.469482613142332	0.500343410419862	0.494312966373359	0.494200782097127	0.497248405418407	0.50644185458444	0.499779265662084	0.51432521767734	0.519658812591214	0.519223139295	0.51931980480124	0.541186800313745	0.538880326688506	0.518796005950436	0.50208974361263	0.501048024203245	0.496022181077539	0.50274503917991	0.508131645934849	0.505922459322848	0.517806140071376	0.517526111122825	0.519179775430353	0.510955326004771	0.514051036434112	0.501730109235244	0.50215352653318	0.515223612140403	0.514916794303669	0.530432212819557	0.530852381753372	0.512365814335286	0.516908904070843	0.508809251394355	0.515697168843131	0.529780336631002	0.540635379412461	0.538446823140619	0.546537427080465	0.565638081609295	0.551031876383048	0.554842166258839	0.556712242375357	0.548800287202065	0.564275323645956	0.576062857358284	0.571003185723323	0.562784591831236	0.567616258514637	0.565794065280376	0.587585281409859	0.590712426700862	0.584632304334888	0.596010465983729	0.579715091459199	0.578049237164505	0.574080050088661	0.586270250937516	0.577447376093907	0.590235138933065	0.595168807534844	0.604333894096002	0.598477125845046	0.600040078673349	0.592746708331894	0.597895238458297	0.60065896321995	0.598130231194338	0.604845383620768	0.616169361560013	0.599502757684413	0.600899520120071	0.601984502508528	0.585630330146379	0.593536091915461	0.599279650256855	0.5955896666842	0.593401476586733	0.579977884896993	0.597625810572232	0.599224407573606	0.608586563738689	0.593515950075796	0.613462784185123	0.592905128988629	0.604515148849253	0.615748209645604	0.616913657511183	0.610645650192465	0.58521326627991	0.593044721952691	0.593551961117449	0.591716477410323	0.575290918165784	0.577271650625204	0.58371792263364	0.588225835160797	0.596223102744698	0.573593354859062	0.596525761844666	0.586489679694213	0.587645780710001	0.612004567814158	0.600681564264824	0.597785714301802	0.591145796384003	0.614494938828147	0.599334090382301	0.596615426629067	0.595059312239355	0.58225185177629	0.553466822684745	0.559516200648969	0.585238232921061	0.613260044256827	0.597012139935687	0.60217519370332	0.613258860926302	0.618053001721334	0.614675609993417	0.62643886018208	0.627962682344365	0.629656596949206	0.647466082528381	0.659487604864518	0.652407767079032	0.610314454675904	0.605238529329918	0.599644914675647	0.597604199207431	0.603873089014402	0.61182454459413	0.604403829437673	0.599590955362341	0.60529140133208	0.611156058787643	0.592267579847157	0.591881435003115	0.584005248641812	0.596930011641842	0.591625037323832	0.612011673833663	0.607099790451296	0.600227833751846	0.587074432898475	0.584861921893925	0.568599508941709	0.60556538286493	0.609958465012312	0.614548735766702	0.616203022417171	0.645473048724015	0.650138662741289	0.642871950521601	0.643520609835299	0.642297042706378	0.647629323826497	0.667315954675365	0.677048712119373	0.658802940882062	0.661168447761589	0.650298840843601	0.654621640516548	0.663982070013277	0.669032636090851	0.668578213046266	0.667480686797233	0.667706671210509	0.663915011416051	0.641571370134765	0.645284829395225	0.657165602434198	0.651697191509619	0.660188350037228
0.375172092036131	0.372271788753255	0.360876613224309	0.365108711134349	0.373825677935461	0.374586098494571	0.374338867035758	0.372203514654854	0.364366203236261	0.35883098512983	0.359240105516643	0.364301930700353	0.358059882029716	0.346348392351306	0.347900877861045	0.363632794396972	0.345368899436874	0.354347093019761	0.348725718468063	0.359588605202874	0.356919274021382	0.367362131389061	0.363564531761244	0.368728174529484	0.366392791876595	0.380037236635516	0.390683434579463	0.401208379182968	0.39019283586399	0.407686922270113	0.399704809086025	0.399927476962876	0.395376071021342	0.390416031939933	0.385987096348817	0.386077952480915	0.37295326593894	0.372935491807244	0.365518187756171	0.363403525731612	0.365491042966783	0.38795241291073	0.386794780656119	0.39251613423288	0.396747695442744	0.40027921846794	0.409807999451655	0.428669186662432	0.451211347932898	0.476496529458258	0.489356984898984	0.498554949746075	0.512886997252051	0.51002171728695	0.507634116369926	0.514818078496492	0.519044741485825	0.518061659727768	0.517099118449964	0.505055620532192	0.487862237251991	0.482032754822394	0.480993637959568	0.472452084207666	0.461011344613884	0.478222786665559	0.466670216071233	0.460874668723851	0.463858447338312	0.457227988602473	0.480637966077378	0.483399777846847	0.504648017453112	0.506304547725679	0.499345971930717	0.499018265139736	0.508964170264092	0.50418040782121	0.497230871789752	0.508588351298713	0.504774750644721	0.510780717714748	0.500633520273674	0.489244920456581	0.493164194162993	0.478059284052025	0.485556963354898	0.488685861156276	0.48795890182038	0.49024040048059	0.48602904887752	0.495119146655637	0.491515104948228	0.477437489454768	0.493852904645192	0.494742088037572	0.511633293808164	0.507872315649944	0.495829379060727	0.494786726227745	0.490424955758419	0.488161800375375	0.497752991304103	0.485896988187387	0.460479209350529	0.470091717248706	0.473906259011126	0.469505514623135	0.473284809330606	0.464329983571246	0.467791676171304	0.469573939596488	0.475273989845633	0.479432669474795	0.473761290207903	0.458166604397962	0.469414813345624	0.469852850098587	0.473806731727956	0.467495076887615	0.473474239560788	0.458262254278376	0.461451523532844	0.445411863678898	0.451034131688727	0.440171652201765	0.444533189107923	0.446072149925933	0.449641223894303	0.441117523280284	0.446806594600102	0.441318280319115	0.435323912151175	0.444172784181953	0.441401994692415	0.439948623991923	0.455503799673736	0.449569790280721	0.469474801319771	0.475869461326215	0.471702165211564	0.485330624632938	0.482016719735705	0.487609690603823	0.479237031624099	0.479607629636058	0.469482554182584	0.477934795485949	0.473871349422356	0.457427718063034	0.451885986808837	0.446563582443929	0.449773373637366	0.455493439496598	0.452438213316989	0.459280416854492	0.466056431954706	0.460186540056873	0.465675184865189	0.485911338840708	0.510499188421485	0.524977226892134	0.545115154115954	0.552408948436212	0.568131642727184	0.575523431139436	0.57513902994642	0.587345648733844	0.58513611635223	0.59113388386592	0.596015075413084	0.592951534547983	0.566349016261025	0.567420372438214	0.557389146477545	0.55096679729951	0.548282072383699	0.535659721338186	0.560253494186966	0.545209214315725	0.548160908223073	0.533685933343695	0.542152938268121	0.555365270054451	0.563389079539672	0.584266552923339	0.581517008790574	0.571785257765554	0.581932220328145	0.571719918891926	0.577538253376208	0.566282749319467	0.577891435382272	0.58126765757407	0.587862202814626	0.575019045756746	0.560887947673013	0.557828026444355	0.546478419834536	0.555441436033445	0.545326673961297
0.296472181066507	0.290732963276105	0.28290496960867	0.279316317989589	0.276371074764267	0.282681518473683	0.289030234073227	0.292888140751434	0.29281862831981	0.296721640786419	0.30205795226233	0.300658543206366	0.281255542383947	0.28769293844692	0.286148626164522	0.291811298534175	0.30159504830017	0.298192115412733	0.302729568064723	0.300992495545214	0.306445199422788	0.29999605306273	0.302522252062049	0.301859001355288	0.308385099406325	0.301964695210171	0.304226546953757	0.304664547056387	0.296522598132725	0.305100641499078	0.304832027747543	0.306104930500079	0.293173769441796	0.290742865130444	0.301591201920895	0.307234196412348	0.297086566973448	0.301351295166343	0.307927786031722	0.312265974512004	0.318097208132171	0.31903215120546	0.318695279412085	0.313412378413259	0.323327189517262	0.33798863667153	0.353684512982849	0.35084002271153	0.354305630114854	0.37066754395458	0.368925635026108	0.370123816049015	0.361475456817549	0.363191252020928	0.366903872561092	0.36754847510258	0.38262475017742	0.378258889255142	0.372757439649722	0.382963667985138	0.384579083036403	0.376681984291166	0.370537239522233	0.386362469023558	0.397061737653409	0.393476065155382	0.379603622903583	0.390107901597933	0.386418775081686	0.386475379507078	0.393731687520695	0.406198831807349	0.407837821433576	0.421049214631414	0.433394778873353	0.431726831192487	0.427779761949396	0.420130088303251	0.429703763099484	0.428016418215658	0.416524706962144	0.409903226161354	0.405295071468007	0.391851220614844	0.391033578718199	0.375968500306448	0.366951503545261	0.369450394834968	0.377049974488875	0.378745503611745	0.381858477864253	0.372890996482584	0.379175955795518	0.391419849459675	0.394999133963292	0.400243262722614	0.395901181144828	0.397801304041444	0.408448288781679	0.410667274717669	0.401575494879078	0.402556890580678	0.398834873029958	0.403527732585527	0.408967581143863	0.394196440618694	0.380736433864325	0.3754297837349	0.368822810644736	0.369275176497357	0.356549227762021	0.349560204485988	0.371157127316293	0.366552420116512	0.361608778032401	0.361568542945194	0.350212091409496	0.353663643818754	0.352556697001033	0.358585581424588	0.361808926649499	0.369833381553444	0.362935506664285	0.37727008826868	0.369236871814919	0.358878909206949	0.359982066494628	0.355373636080446	0.372294815967196	0.373733441526322	0.380130948586518	0.384186683409404	0.388757918806967	0.388646041498654	0.382941707087032	0.377970857161623	0.377409441894639	0.373174638995714	0.369132800876426	0.374216919490021	0.380529674184297	0.373342765188863	0.381583253929402	0.376818820062848	0.377517875156078	0.37110142666404	0.364003679885885	0.373782863651758	0.373676447980429	0.376603378430016	0.385195904065745	0.386903781133513	0.393345084102962	0.406958369986013	0.403728055068945	0.398193969511796	0.395966671971443	0.411445499718814	0.421191041777236	0.4269403503594	0.430074899702343	0.444720703419781	0.447909208332781	0.441258403151828	0.445077099097856	0.439522579444458	0.449505453995925	0.442910716018346	0.459022680945703	0.468577720814253	0.463614274924394	0.466516221074125	0.467431657863746	0.458875326567492	0.456252121194644	0.461763865928161	0.468437022882719	0.469652045464115	0.454048644636564	0.453832242979836	0.453836572884783	0.451256501862805	0.449722398808031	0.45830643786951	0.462620704038292	0.463000749588248	0.485370185722824	0.48241973878088	0.475689325474518	0.466730865548009	0.475074110058307	0.489781627705765	0.470743602516931	0.474949121437744	0.458985091844133	0.452247114193541	0.441220580294638	0.427342580726046	0.411597774949782	0.416163857427672	0.412531769616215
0.243831167940018	0.245368816707619	0.23877539633774	0.232280848231913	0.234082372238526	0.241893971819692	0.237328667141251	0.246173645867121	0.250411255544999	0.255524854135495	0.257091273881907	0.251659597519762	0.262470491015826	0.264523527743837	0.270479895924115	0.27752262843874	0.277054006337087	0.273694724579236	0.274494256112692	0.275755834665531	0.271883140994145	0.261814843039914	0.258445442506229	0.256911771628592	0.249805182381109	0.238489715284276	0.250555798212905	0.239077834405961	0.242364608850127	0.239956000702109	0.240142549083462	0.231482348161294	0.23570695514758	0.234062242809293	0.241373659479387	0.248780378394224	0.2543949136159	0.250768423390159	0.254269132870577	0.258576630534446	0.264477209875516	0.270922749142626	0.280668934235159	0.276119127046214	0.285228735919503	0.276660702511554	0.276717743245371	0.278224489073484	0.286826950409555	0.282780697399319	0.296587748521132	0.296427959947978	0.288548351282801	0.292192556200405	0.282611980052261	0.279950313089455	0.271557198562476	0.271727368462687	0.276229212954231	0.272322907878763	0.262570819640768	0.25504089251486	0.25086925925685	0.251005260525614	0.249159122559256	0.258014159772153	0.2574909412522	0.260600009292959	0.24511551534393	0.256108360363484	0.250589043091005	0.246298634331344	0.25157972096592	0.263415652179611	0.256259567153293	0.260281916660803	0.254814152149786	0.261082080219464	0.257982834695333	0.26313015218097	0.283725251221694	0.294523227604091	0.305035829698162	0.307183372365605	0.311319964264867	0.316602567542458	0.318320889734183	0.330490476241876	0.325333114927893	0.336186791665485	0.334152759595496	0.339826808570849	0.336483614206248	0.335063513515046	0.333494255870997	0.330652635793457	0.335505856454975	0.340559877204727	0.328837664561404	0.328837480763533	0.31822147062021	0.318215447773771	0.321790740046062	0.320184678907727	0.317934526662794	0.311999477730112	0.312275805357091	0.30497868126295	0.312771931915018	0.30514174240871	0.30620971490169	0.313487207445554	0.308461552253872	0.304254517755535	0.31398372174189	0.303202643355535	0.297658065890425	0.307288798942829	0.315165240132343	0.31705969557189	0.328576472880532	0.333009768088822	0.326262262335717	0.324164688129343	0.322174678448931	0.323084830557778	0.31895932668818	0.329120802957076	0.338279601877108	0.331275506472056	0.328545234067355	0.321855922800274	0.322272309758766	0.319629774373971	0.299693924384673	0.307276868126654	0.309023474637801	0.299734201228106	0.298030335371536	0.312958209720486	0.30649790616544	0.312666689562907	0.308467096981512	0.311177209826314	0.293206468819261	0.301510039920407	0.295336140562443	0.316019484384163	0.31252957517175	0.318771183787775	0.324395818487995	0.322100616770206	0.317407028441672	0.312937161227982	0.327042318636628	0.328141065382426	0.328282820014369	0.334591627671889	0.327149339747602	0.344865104010037	0.345858818982084	0.349263123850724	0.35497585936966	0.35274228345123	0.354380180693233	0.349023432226203	0.351964203724852	0.332909231958021	0.333964168564522	0.323576661815606	0.328865185286776	0.335045039377593	0.32231423985292	0.303182340143319	0.299581433297261	0.294087567256468	0.294871563557006	0.29539574548426	0.2964195397444	0.299045428459785	0.2913151315984	0.288734573591434	0.293955184080902	0.288765671785128	0.282982366929822	0.288334407844811	0.300417963963319	0.289609442999195	0.292052827281403	0.2854199263945	0.286280884360846	0.284995703424918	0.298845223083233	0.317615045093393	0.334857293269093	0.338926394993907	0.341052967380537	0.34287761900945	0.35440385650524	0.351809175587476	0.363679900708491
0.204929738015165	0.196900491430937	0.194036852522217	0.190263252489562	0.185567372601362	0.184616304806292	0.181562938336675	0.177883162810003	0.186751202652859	0.191559160853215	0.195065447210887	0.186519677168536	0.192851035812731	0.190528327325408	0.19542253712984	0.190526037262061	0.190843127987547	0.193494384703698	0.197843489674334	0.196925014453011	0.199831875784207	0.199451061604569	0.184377360199125	0.18196683407669	0.180819696575521	0.181375064941562	0.192146448711239	0.190282465897677	0.187333586904399	0.189076921342443	0.191621795221788	0.192053146035383	0.189889147112534	0.189562794470684	0.193534331735972	0.191997740152714	0.191582245389958	0.197993535489519	0.205101187824138	0.199687227166724	0.207671818331287	0.202350914494763	0.196392412086723	0.196433357237915	0.19535275426647	0.19871925773665	0.199262128251227	0.200259973637457	0.200073986363236	0.201853207132961	0.199387823609487	0.195687305724301	0.186184115982201	0.194476009367776	0.197502355297094	0.213352448834547	0.225107046721112	0.222430987489175	0.223815373032528	0.219967207549805	0.224691745248302	0.232572412101761	0.223239288063955	0.235663274831153	0.235914185788115	0.240910820201184	0.233277962907569	0.233358946423783	0.219590474181673	0.207975740319106	0.20781998002437	0.213063863615144	0.224913015363021	0.218247535495346	0.21407256769477	0.216209863651083	0.206831848185337	0.210048626620183	0.215435954012835	0.222245630129363	0.216405213591542	0.21377060863816	0.222935714823035	0.222836399145794	0.221002206097662	0.232624510719196	0.241390354926565	0.242257286415719	0.250217138142247	0.24620430486078	0.241913146057324	0.234476272036762	0.237987688178684	0.240412225648119	0.243956149472008	0.24129201248253	0.230647957191129	0.232926355087042	0.217589011286707	0.222664197732505	0.230538269199147	0.233640322138218	0.246098945109734	0.256181339620382	0.261863486162865	0.25852239832322	0.263968773374286	0.26712842985969	0.266755709032575	0.272993946452748	0.268617600471965	0.2773478210339	0.265515761680186	0.262129164225675	0.249044765783508	0.259380167616182	0.247639127163064	0.244283009990879	0.240075118815876	0.238348819580447	0.239847262003525	0.239829634766938	0.250391386508447	0.251028518012414	0.252769874450857	0.247688447124817	0.241326111575045	0.245084257565492	0.244736544011917	0.248371190527697	0.251381990615421	0.256253361783151	0.259501127789204	0.258292711815497	0.247866523449245	0.237708400800822	0.237689230074027	0.240398036109509	0.24235851406108	0.248403071939464	0.24088965672742	0.243682855700338	0.245137104505699	0.238799388192089	0.244923734209628	0.239804766074193	0.236021825996519	0.243528934775698	0.23992070978101	0.240483073882308	0.24515389051131	0.249936814550474	0.249178479851228	0.250773742278139	0.243545619763722	0.234672689350236	0.239701441142215	0.241338536746405	0.250872125807557	0.247393420434948	0.250809664067766	0.263333720853164	0.257847846729223	0.24882705923264	0.247307365490495	0.239473836778208	0.249030793252175	0.256553617405854	0.272909645495122	0.274853606572375	0.269118625582645	0.267870817516981	0.259209718455124	0.269338711815789	0.258484597114566	0.257729177147299	0.272721401632946	0.270033038747374	0.268922517519088	0.264298344227273	0.259158879801253	0.246123290783243	0.246664473236695	0.250363885063598	0.255336195142758	0.25897413079786	0.25481963327103	0.259366557596818	0.246174004003516	0.245719735955469	0.247039647846401	0.248057554562665	0.249744818987183	0.245691002075136	0.248221550940519	0.244265162983033	0.253189329502651	0.254158231188811	0.267228386837076	0.27449000777001	0.271637981566652
0.145723245737589	0.150718602315821	0.154462498236687	0.153970735724883	0.15642955386867	0.152643528511356	0.141578423566453	0.138121603314794	0.125665252895024	0.121417935482587	0.126247979096993	0.121983036487183	0.116755130060554	0.111929138691735	0.111092312208149	0.108778125764385	0.105007141901226	0.110185075347372	0.113775562799239	0.116046200766284	0.1179475342095	0.117457496094189	0.120089404506434	0.12314248672428	0.120356261349303	0.119502169234206	0.122082933940989	0.120646867530291	0.123340309083196	0.121536776748303	0.1194948352369	0.121643173316191	0.124898423506852	0.118298906106838	0.119766015117347	0.110866958353681	0.107084563969473	0.116279363510955	0.118764559148887	0.123726024888636	0.12149567510382	0.133294586272307	0.141592939768511	0.149646338864062	0.158808340027093	0.165663372067761	0.173018435010695	0.181578187128226	0.18680500085528	0.190966766357611	0.191316041529165	0.189854366492055	0.187342671219056	0.191677020567794	0.178599916058583	0.171104350658215	0.17613474172809	0.167592974427681	0.16720028684727	0.166798507082331	0.162767852714709	0.16421001191194	0.16442323536066	0.166443737465878	0.169925387079529	0.164482753247928	0.17028311551465	0.184780730534746	0.185551603882199	0.180615817892164	0.184705169053324	0.176510858295322	0.180710773578207	0.184610857881514	0.18519292399011	0.189619328027713	0.193069636372506	0.193789149081533	0.193804691828038	0.183782509279948	0.178125105698296	0.179714495880185	0.183767033397754	0.184994832615931	0.181824509431126	0.181245994872197	0.186445419010642	0.186809014657368	0.176497113311884	0.172238840558988	0.177517278357441	0.177829284715428	0.170631747906943	0.173506448604058	0.180936400080377	0.17607930596998	0.178360459812401	0.18399136879665	0.181657957399497	0.183155567933012	0.184216892054268	0.183244223472263	0.185239386743813	0.172109202308229	0.170143232197154	0.171984205246802	0.174452432637469	0.172173002237932	0.184256664091914	0.186248780736879	0.177780643933825	0.17856440827672	0.188196090230475	0.190413691386015	0.189142525036979	0.19783500538478	0.199546395569797	0.198187735594848	0.195714551132419	0.192038324761844	0.181453396680811	0.169583933131429	0.165556101830848	0.168457443766702	0.163091746330272	0.153564481444352	0.143085327243341	0.144929585597624	0.140209293702844	0.139797496404384	0.147874116150861	0.144293801959689	0.147417146500842	0.152235877395802	0.152779190428935	0.157869335592561	0.162093283841952	0.163718639963495	0.166260290141918	0.164552643311096	0.170235242708859	0.171149611277858	0.173177428751771	0.172538590055374	0.173773060943608	0.16756251915348	0.171864148158514	0.163662575366437	0.157654863451084	0.154197274047715	0.161530038486278	0.163904697993868	0.172359937415415	0.175716737521817	0.187918701387282	0.200271241576335	0.192126051505464	0.201199004487641	0.209061091382375	0.2150014077932	0.219821254516175	0.230011795236122	0.23189104209568	0.228495194397078	0.226526984382515	0.221120187864243	0.216252191266382	0.207101453006829	0.196354175119825	0.20292223386405	0.203291483131689	0.20146918489055	0.200108921508765	0.201121789681748	0.196692707203386	0.195613580845169	0.195018204327315	0.199204744491457	0.198153245933597	0.210991285529537	0.215289008158292	0.213988802266328	0.211097194139042	0.209758876724872	0.207590898361366	0.216023690159046	0.213249245232938	0.210659266350777	0.212691016813907	0.217138121261025	0.219394892206252	0.21504822136982	0.20596895419259	0.205109997241474	0.202886666741708	0.202317476340058	0.207611704319579	0.200394663902116	0.201717476539469	0.197417382671395	0.197052982364482
0.131862320843262	0.130140388856688	0.125121367494	0.119735539216582	0.118263451766804	0.118710921781094	0.115355898603715	0.1194736971401	0.118639080694271	0.119165819745499	0.121411990889152	0.109642741337051	0.117752501262125	0.116737927473281	0.12632671221047	0.123148583346387	0.130405187721553	0.141789153774803	0.136606061930051	0.133266338492258	0.134724115156495	0.129227706109924	0.131619042202243	0.125115279737906	0.127742115032184	0.123225068430517	0.121315956928492	0.110807311368171	0.112174986321876	0.106429945075561	0.0950782694271581	0.0901644530923885	0.0907822095611586	0.0875323517113151	0.0876302927582964	0.0854454355007131	0.0879659280405337	0.0849367107345613	0.09086493056595	0.0932772414202964	0.0986964233219242	0.106430003456463	0.105928649808638	0.110301723676345	0.11329094039201	0.123068868885783	0.130244792528122	0.132561015759069	0.141105334303468	0.145686171523862	0.149724869584265	0.147430432159178	0.14486334170625	0.142578582734864	0.148784942933564	0.150362955041009	0.161131757716056	0.161881138724376	0.154764129390668	0.159148440232154	0.154716024463034	0.151775796281584	0.150261022164684	0.148959789696495	0.15081700212036	0.153474198973945	0.151998817692724	0.156990044395017	0.153554310834311	0.145482709574914	0.144070204721494	0.141876371944878	0.142253672920814	0.141874564142767	0.147303461528771	0.142819985101097	0.146072874934069	0.148293319111675	0.145971216126553	0.14130531645343	0.140764104436601	0.138527875033338	0.142034818485539	0.143770312285484	0.136404003237415	0.147021354420702	0.145111782694156	0.147618031993891	0.156781748214999	0.152373101993711	0.154072538477667	0.15360607622078	0.151539406010648	0.149300619114154	0.147427940942914	0.15130431049002	0.147903175939474	0.150435103745303	0.141651119019537	0.145342142182159	0.140920138418529	0.140983191790252	0.141964395406355	0.142367286054998	0.142681277999783	0.139777763914538	0.143591438018711	0.147544567622223	0.153563336288275	0.160263816740624	0.158866396445555	0.165893427962028	0.163016512924516	0.161401673974359	0.159978158339417	0.158984401367991	0.160118586586724	0.158102316272442	0.160585588822381	0.160449495870149	0.160381100478542	0.156602719772019	0.155422248031098	0.152880193323872	0.150907534345552	0.157769041663164	0.162703178029754	0.166017754836295	0.162462048796956	0.167148391540581	0.176654675108548	0.172656092764915	0.16477843308425	0.165908379722989	0.167099299128903	0.160641147666829	0.160211573365159	0.161894406803119	0.153914667178444	0.152859212458541	0.150744194346111	0.142991892717049	0.131304488583168	0.126287432698704	0.123529626861608	0.124571294225364	0.123510991324026	0.125177900557561	0.117908681143905	0.115577851331004	0.118536211009091	0.12185708552299	0.114605592891997	0.124677332864535	0.12476345959918	0.13184575937887	0.133454442832619	0.13765969198588	0.153292831658346	0.14839396556562	0.161397197297477	0.163224224816611	0.171411257315832	0.174251977269939	0.170985359842562	0.165370144902312	0.170281614536384	0.177326303452105	0.183428530782579	0.197565356622886	0.191899926703322	0.183264733719037	0.180741361885795	0.179964280081835	0.179155354231418	0.175422927472885	0.171555815894326	0.17307626927103	0.181638024854747	0.178673982153032	0.175848060941054	0.172395410217714	0.163954915830009	0.166489784318218	0.164008907442516	0.163715799629776	0.161967212037453	0.159058054801709	0.159822731782305	0.157824161065957	0.161056009743173	0.158815894663903	0.153800508081652	0.151755966020358	0.154826253625111	0.152124665282773	0.158101039423537	0.157497142226769	0.163159916332381	0.162478247804685	0.170180398269139
0.0684902453661474	0.0700861423927932	0.0748808662032377	0.0773487775241178	0.0734612432420436	0.074803313424295	0.075646083071131	0.0767203325256745	0.0782610307195636	0.0805537345851868	0.0830360170990213	0.0843925300755938	0.0852315086892963	0.0909627667759785	0.084602347193989	0.0805299939466963	0.0847615953584324	0.0910445397191378	0.0888892624512776	0.0858554478540031	0.0916346225612226	0.0945329638639938	0.0986040408544339	0.0997719346023714	0.0984387386057222	0.0965395927217862	0.0955174267369651	0.0986716729005268	0.0950135497808003	0.089555393611151	0.0820501125033182	0.0848364113330847	0.0867507749979621	0.0790292927438859	0.0822706791124016	0.0805160754748698	0.078548165390981	0.0825983190825623	0.0807153568426238	0.0820885555380002	0.0827964515768014	0.0868551195575802	0.0903846249012988	0.0961146317728121	0.0991491326424898	0.0968698001116885	0.0949215722781609	0.0954521127156607	0.0918494669468104	0.0923236726021258	0.094637421534059	0.0958637759041379	0.0918819361459033	0.0901502590923498	0.0888606638025472	0.0883706901526489	0.0910386473765581	0.0923469608011084	0.0969689005186959	0.0967772782928071	0.0985491802858089	0.0983811568631915	0.098191034344466	0.0983577297831791	0.101655603784874	0.0984576142825179	0.0990045309355443	0.102982466814286	0.100982145024143	0.0907755210977125	0.0932252663820461	0.0895994809190751	0.0922258622912994	0.0921141694123767	0.0943850636570167	0.100160680151868	0.0971470133545438	0.0981570862610416	0.103505684782543	0.105214928206391	0.103474589218448	0.104231741479237	0.103291145487542	0.106369515354568	0.105157661160716	0.105127060586702	0.113087898747599	0.113633412649235	0.117026346986574	0.115925783385167	0.120289166491217	0.113725699332433	0.112036708012149	0.110820816489967	0.110960268190043	0.12144512112381	0.118580665575753	0.118822370389739	0.113414574558185	0.107232930784318	0.0994170298231235	0.097542515818631	0.0977378792536536	0.0972964508277698	0.101106220516985	0.0998727848145747	0.100443921145791	0.102468819884695	0.0922946648241658	0.0906382864557345	0.0872116508300031	0.0899182259803548	0.0904030642848742	0.0885641352620305	0.0924098460820223	0.0996595721551704	0.0952382575868149	0.0953825147149795	0.0983750583045441	0.0955002561482788	0.0996689328663061	0.103298359352219	0.106978457143702	0.108051331397771	0.109834325661546	0.116356637766351	0.11978387298945	0.112787201488706	0.11549909669998	0.123363520178614	0.121241372477986	0.119725069339139	0.117764804957604	0.124627045224435	0.120533773563934	0.126350093960964	0.127343839463597	0.125748540109915	0.122017804827069	0.123682812227036	0.125795457375392	0.122676198475664	0.115955963710754	0.114332279942383	0.116192054272973	0.111020762781004	0.107249871856711	0.110864459906504	0.108262341273925	0.10911245154261	0.11037912864079	0.105277154762308	0.106265041281814	0.111508549381326	0.113953967000123	0.115452126787896	0.121216291265781	0.120114205765751	0.120786990439586	0.11578305867885	0.118744039558178	0.113058410715073	0.11335273101941	0.118735891665316	0.114860737553745	0.116265648501401	0.112160775186221	0.110321631497053	0.110059005984018	0.110868187550933	0.11293913863844	0.114139739735092	0.111856049756625	0.115732903449689	0.117559776872477	0.110882343249171	0.112381415167538	0.109712731245469	0.105022886328044	0.112088728141084	0.118210829526003	0.110729638585709	0.105912401862394	0.104888349093776	0.109880508110936	0.114906010252371	0.112691476064534	0.116538669621414	0.117294157242028	0.115242850054781	0.114780636890155	0.119467916461421	0.118295134945542	0.112456592493014	0.116512013814764	0.114311367061142	0.114573440250157	0.11594374608054	0.115585253803806	0.124346882169088	0.123216167989378
0.0820885262709054	0.0842867185805707	0.0827609997040975	0.0849950161794631	0.0849502991674728	0.0771161740615114	0.074593967341414	0.0713055319796417	0.0746495537884951	0.0693817144285204	0.0675881940961417	0.0689223826360011	0.0736110254045191	0.0759318690909752	0.0766223421821545	0.0728272717820333	0.0705534797416338	0.071158230795337	0.0661734420082351	0.0610878542887218	0.0693408616636365	0.0702344415238667	0.0668872456595659	0.0683446007477359	0.0645879579321838	0.0578879084729874	0.0610295581526841	0.0561665794882033	0.0594075135909441	0.0618798513153298	0.0619728237413354	0.065443132491626	0.0672983563638199	0.0613331319826878	0.0575675296508566	0.0629539326004636	0.0592704844869238	0.0594607809988331	0.0634249325203793	0.0652029075362789	0.0667033627482214	0.0603828946366446	0.0589716858951937	0.0610855980696274	0.063257374166393	0.0677443531135919	0.0707687266936899	0.0730386510776587	0.0705768294752998	0.0728212350090734	0.0740353965520526	0.0730775203844324	0.0778030609044804	0.0768443039342596	0.0812576347718649	0.0777691554795746	0.080674302511209	0.080048443857595	0.0795850110900664	0.0767284211052502	0.076203858034191	0.0787386086935592	0.0802891955202222	0.0804860813843717	0.0788318765466018	0.0782763514505315	0.0781501233531564	0.0814447023788184	0.0786785497541696	0.0766428346026361	0.0832030174033448	0.0820541748673412	0.0836447161916842	0.0810102985482796	0.0778762768458826	0.0834726532558923	0.0822818826090759	0.0833963259069731	0.081714855077961	0.0797443209059947	0.0759664425479135	0.070537245699528	0.0683183861642247	0.0616239620662202	0.0662276234283134	0.0651562377932019	0.06452499687843	0.070755591512237	0.0702067427661251	0.0739472733363839	0.0781356247410711	0.084214539404205	0.0851643468078657	0.0876656012255087	0.090714501750894	0.0910656196080984	0.0923391723295013	0.0927966559334867	0.0920051869237252	0.0946870563000249	0.0996303412281269	0.094374800642336	0.0915512457447382	0.0915906145388542	0.0896554947020344	0.0979960020778265	0.105313876201019	0.104635429964641	0.105505059473313	0.1078303033445	0.110862074561207	0.112155837742536	0.105176210425655	0.101691739302684	0.103740820187021	0.104427377921021	0.103013673460427	0.0974652185526702	0.092106024613458	0.0889968761524348	0.0892299728938683	0.0911378275737887	0.0908770480063906	0.0890752651586251	0.0895170797202532	0.0925207917295591	0.092102010465902	0.0906307902753084	0.0858691254923026	0.0855142139231406	0.0877572676482461	0.0810179615474915	0.0820246944790708	0.0859980106625161	0.0853397117163472	0.0810417134385343	0.0817738445531301	0.0783964279254606	0.0741878620464787	0.0746459087774483	0.0737667883460199	0.0760435046688779	0.0763869686893878	0.0773418138032291	0.0810646012201709	0.0816720581233299	0.0746327213872734	0.0740207571152278	0.0760344938805275	0.0734207719768936	0.0746490525074806	0.0778160736512403	0.0816692908294009	0.0816623678530621	0.0739297824919884	0.0783222183189933	0.0815311633770158	0.0855788327946358	0.0871875756355359	0.0913006374491135	0.0902822930243953	0.0895813304968706	0.0908875186081333	0.0892348372641071	0.0889312761811703	0.090785593195683	0.0912970044288357	0.0963953881944692	0.0944697195637149	0.0971914673683968	0.0940121860574967	0.0927957573565789	0.088888970078252	0.0950845226102374	0.0938206347695264	0.0931245503446234	0.0957213018643441	0.0935753223962258	0.0946041396889746	0.0933597190093297	0.0920716649726607	0.0926589897991838	0.0953937111431022	0.0969273401685938	0.0984123531651582	0.0976259636408843	0.0960078989382208	0.0975870161000016	0.0987442924459991	0.0967458906760229	0.0977173537393139	0.0933333983212503	0.0930106341493897	0.0884980685041247	0.0877481285271626	0.077481044620632	0.07689096904706	0.0775208310342396	0.0820552742149121	0.081668089556242	0.0804071981567037
0.0481369728540751	0.0458088395537497	0.0476743955021033	0.0484328812805427	0.0464841686743145	0.0468900315537625	0.0465104741771862	0.0469195820396218	0.0452102517587554	0.0524331446781937	0.0512871682431855	0.0572176101799713	0.0526841522282329	0.0528706850604871	0.0550195745983153	0.0542774775704706	0.0545904983471018	0.0543594531965408	0.0537384332478696	0.0554542465998342	0.0523966116092364	0.0514983394604917	0.049603043962498	0.0523861935991563	0.0522563772593605	0.0569897157274227	0.0566951535865631	0.0561770552144606	0.0522810771553745	0.0532005921286585	0.049277635546913	0.0473406255669785	0.0522316111721893	0.0518545470679372	0.0496587811907831	0.054103125602593	0.0522060192778409	0.0514825813057279	0.0485930264875523	0.0519109632867122	0.0551602797568319	0.0636932175898686	0.0620095564906422	0.0637632446342517	0.0663816263265716	0.0638672054387295	0.0693664097772696	0.0709215395345008	0.0712238017953903	0.0692888077051532	0.0722279906611414	0.0711458208531042	0.0716624188051791	0.0700571320703312	0.0699569497853932	0.0704181719984491	0.0694053336871508	0.0688488727601169	0.0703594799106384	0.0685666794130236	0.0687767049573518	0.0702694650208118	0.0676650632514778	0.061158166190158	0.0626617931153817	0.0650366853255256	0.0668719831245966	0.0673453103072577	0.0727268672303141	0.0741679256978913	0.0783060333537609	0.0739373234461913	0.0725607826348641	0.0744788005556606	0.0753915952065091	0.0771146338214624	0.0786412951371963	0.0819708898213957	0.0748726219441522	0.0706660620687252	0.066282291119167	0.0634748417023163	0.0627845730502429	0.0650198854322475	0.0730166485638845	0.0708476435702619	0.0709893611583004	0.0708120881708404	0.0724382331623143	0.0744125307926901	0.0759052472316928	0.077094229254837	0.0768658960930226	0.085467543638859	0.0852806596624035	0.0826248185726566	0.0801019291712622	0.0752130711892361	0.073057111479255	0.0738307378587836	0.0729101971898738	0.0720365982094476	0.0701408404534467	0.0681999830743251	0.0712858228009502	0.0698529773730106	0.0601533899453177	0.0620014942211321	0.0614930878375222	0.0602499512883524	0.0616931854492201	0.0619997509840289	0.0662885839657893	0.0649110286457866	0.0648668072934565	0.0630033882513427	0.0656530150129836	0.0612971794703242	0.0655719620973759	0.0635433986964139	0.0647637988253275	0.0686230887392234	0.0708200977079059	0.070355291063169	0.0723696472619702	0.0674756364543519	0.0666610668175787	0.0658690123463122	0.0679234306916969	0.068220580328874	0.0667259735001726	0.0677763433735084	0.0670661391296847	0.0679292750570753	0.0610908998919191	0.0615546136578611	0.0675198015439476	0.0688792376359765	0.0725748004995446	0.0712034147144913	0.0732868525299268	0.0665069553791806	0.0681878531468395	0.0653403357862986	0.0649759170051017	0.0674993219428272	0.0661658974059694	0.0705911159986942	0.0700901927524285	0.0684281631897871	0.0646676054711877	0.0646966147207008	0.0681817137187246	0.0671523275329936	0.0763852331165769	0.0748885530837235	0.0764808672959165	0.0749074741372239	0.0725877422551097	0.0821145678186131	0.0782514632103376	0.0756445014107323	0.0770679501804479	0.0836152280873025	0.07985197172695	0.0787781339442916	0.0814420522403909	0.0814857459601408	0.0828879428325121	0.0850365166105815	0.0840148874085665	0.0839503010901513	0.084048150481901	0.0879731335008305	0.0846221487785385	0.0828011049870638	0.0797541505076008	0.0819660108608019	0.0846782762747164	0.0823479097710765	0.0870278566325255	0.0848856011406946	0.0886253849726965	0.0891642537935691	0.0797795220053839	0.0846555421111424	0.0813789936254183	0.0854776581794107	0.0858858374432698	0.0861941554938113	0.0847461780845998	0.0839077458643164	0.0800320113900893	0.076973166762199	0.0770758006702637	0.0775087102734648	0.08040158194879	0.0860920375152592	0.0837402688533698	0.081253001092558	0.0850554856137792
0.0515334053265102	0.0510707346626235	0.0495307160765689	0.0478893624978339	0.0470581836227233	0.0464991137700126	0.0461406606799131	0.0432176153070947	0.0399085555400411	0.0384896638373447	0.037241331711934	0.0372169562080107	0.0367109966238862	0.0376980782505036	0.03994264226345	0.0394228719821339	0.0396411632983004	0.0374756922110339	0.0364102018701659	0.0399372201687802	0.0396920711262042	0.0407915230958449	0.0391717612805567	0.0435794181106269	0.0468858740986632	0.0488671154859835	0.0463021211182985	0.0477468828445558	0.0502234770541699	0.0586201434585018	0.0576182780889052	0.055689518462415	0.0555348718371684	0.0575674124482593	0.0587874603908944	0.059565732109913	0.0611121252398317	0.0582143812779313	0.053655798919924	0.0544535766853534	0.0542559255574617	0.0485982561547332	0.0485341815474788	0.0483753561505998	0.0474244915273301	0.040451832283677	0.0410459350656096	0.0381718341544243	0.0310237821683739	0.0318384523168942	0.0358309429222254	0.042299552188611	0.0409211077829066	0.0419478018776272	0.0468138780227253	0.0458258353341886	0.048790369459842	0.0515850928351581	0.0552437527792055	0.0560127187751434	0.057784251217496	0.060272507254	0.0585828010518101	0.0596489857181834	0.0548338726080783	0.0531264161308377	0.0575431076084334	0.0511634037940704	0.0479886676619973	0.0475908223876645	0.045728353516208	0.0463159287641683	0.0475006769898777	0.0485276383722214	0.0510578226212841	0.0519107515469546	0.0510564856782586	0.0517861450127145	0.0525558435378139	0.0543236804108672	0.0587307013159615	0.0603665184161721	0.0596536887077673	0.0610546716044287	0.0599556751815008	0.0580492695193414	0.0588735581190242	0.0559506622687979	0.0560250450442126	0.0559405413868843	0.0552130966132507	0.0487991233445541	0.0481544553357738	0.0464058763292064	0.0479424816183102	0.0467941512391368	0.0464550642109069	0.0485918350678442	0.0495821930415097	0.0451799791108401	0.0464843063556416	0.0481556791093724	0.0504809526486142	0.0533222452674979	0.0550420132853417	0.060017686961455	0.0611949371050676	0.0640939669199808	0.0649388611936229	0.0665171116342561	0.066169169366972	0.0643608550620685	0.0680094004271804	0.0684875962936809	0.0646620563908131	0.061894297509076	0.0604880329365431	0.0552733444711849	0.0563004276213306	0.0535714568636855	0.0498077177454071	0.0469468919981308	0.0469950971980018	0.0462998064345795	0.0456153401207928	0.0474347324487516	0.0492046935074958	0.0513825863504331	0.0491502786942494	0.0474381863433669	0.0485182868205583	0.0478473236211527	0.0490980941706297	0.0496296071487733	0.0507848914904941	0.0534864389538956	0.0550738739618079	0.056014072279735	0.0568384613120643	0.0557198702600382	0.0549381714532258	0.0625699295524342	0.0682522024610974	0.0629324480886381	0.0600365395047275	0.0640260507284759	0.062502966997551	0.0646368106942935	0.0676353833461732	0.064999668992435	0.0612869242816941	0.0594837857190066	0.0617725325094346	0.0613304390554582	0.0563309025451817	0.0561625241946273	0.0559100142636835	0.0543329832148221	0.0502580207799899	0.0502584192245116	0.0458378480368046	0.0411965841832771	0.0435308447843553	0.0464756544728482	0.0516849690427383	0.0498585520093548	0.0503694958855866	0.0564947263438974	0.0555771273156256	0.059813978510672	0.061942072004641	0.0676309770850076	0.0660397837357944	0.0669546628427526	0.0663305658496253	0.0642379124289216	0.0617470904104808	0.0579701662108245	0.0621148525842935	0.0593015258501959	0.0555011740272688	0.0535830361082052	0.0499532438663579	0.0499671681960303	0.0463418963853749	0.0502969623880324	0.0513878485656871	0.054487439939353	0.052879827797919	0.054359281230472	0.0562578777841709	0.0593265182996336	0.0602281437352285	0.0619433240186704	0.0634663452969656	0.0646182449825203	0.0656653380753925	0.0669236501419702	0.065906884425563	0.0642212705200901	0.0641548179594572
0.0267944930375033	0.0292858266549454	0.0268199247714773	0.0271966393901561	0.0264950496489417	0.0258731039459649	0.0287479571422558	0.0284798324085274	0.0286770513585164	0.0314707423082048	0.0293135860263049	0.029805345621152	0.0332804170305699	0.0318237092240979	0.0312894982729992	0.0306483784930834	0.0309697845655126	0.0315996446426373	0.0315164541803372	0.0318855072263579	0.0315979267641268	0.0323538042760797	0.0299105438773351	0.0319282481020871	0.0298162081593043	0.0274881533309062	0.028295009594662	0.0265899896508649	0.0272748073441474	0.0275303122755748	0.0264953144116695	0.0246039152967734	0.0321569422941916	0.0328385098735371	0.030313644338174	0.031691786771539	0.0307703649444449	0.0306734087016409	0.032876086052381	0.0341324069492809	0.0353025994719356	0.0367351376981591	0.0361054698431276	0.0378758113056856	0.0371180361256562	0.0308922281381959	0.0301061249035172	0.0309035074448888	0.0311967939811475	0.0333007587002281	0.0332532496163149	0.0325075580472242	0.0348211709916822	0.0324453725812707	0.0332470147296695	0.0323987805162847	0.0343725151847309	0.0345462325979295	0.0373234052559721	0.0391511307905753	0.0399947714045223	0.0435775077153702	0.0416478950475294	0.0424602856341801	0.0429262833293015	0.0415682400729874	0.0414192235804712	0.0403906657208365	0.0389509649556459	0.0375476034169684	0.0394423064697447	0.0394989655114533	0.0371842909694616	0.0372819149781887	0.0350247179709754	0.0373971600442668	0.0369425643661082	0.0360066081768704	0.0363392364476291	0.0380730418632992	0.0395105467543001	0.0413222555098678	0.0399191128285725	0.0377467436516589	0.0393712566665995	0.038590157151175	0.036167729116497	0.0367378577524386	0.0350534859808007	0.0360107133957098	0.0393751323268493	0.0421861597512137	0.0400257637075751	0.0414866053939946	0.042555161974982	0.0460166434244886	0.0468506813434146	0.0469721985277479	0.0504919509714857	0.0505907935713228	0.0528549223491625	0.0498753690287122	0.0535858472711753	0.0521442970348399	0.049204274704667	0.049285500832585	0.0479897974615511	0.0434645627243678	0.0438004548965923	0.0416464255483442	0.0398728395601009	0.041007093733295	0.040192864504796	0.0396615733387468	0.0397871941217613	0.0405735164046919	0.0415456842481418	0.0426591870265316	0.0422303299030107	0.0414444635233427	0.0418339158521376	0.0417639392024686	0.0460233064593611	0.0427155986624151	0.0452289647470097	0.0474436494356964	0.0423310017132187	0.044079128054515	0.0426138076373134	0.0414229585596675	0.0409169604721477	0.0424917875466073	0.0427157174882126	0.0413972779839198	0.0414310978129924	0.0405522203361766	0.0402431792288469	0.03732785143765	0.0358335480817995	0.0353515523411064	0.0335000715661876	0.0319545722398249	0.0332081931711801	0.0288100997959154	0.0295552579587621	0.0372188630559485	0.037918781092113	0.0360458156425071	0.0362331998150641	0.035608763824351	0.035511807581547	0.0382243203794625	0.0397267083281626	0.0408899036051592	0.0427873775518494	0.0430697806447354	0.0449915664878866	0.0396407685811346	0.0371890126788913	0.0374133564401999	0.0370608399284363	0.0398330514453477	0.038086375871404	0.0394671430195439	0.0404125503937242	0.0398039336338132	0.0377075250658353	0.0380658852163225	0.040203896466686	0.0415146124387065	0.043070500619478	0.0456739206377451	0.045847667609908	0.0494763351263085	0.0480748575902183	0.0494227025260999	0.0508338362084957	0.0499639370236638	0.0494373772500248	0.0485313150515942	0.0476897940251636	0.0432736381650527	0.0447119869343039	0.0454948525082651	0.0429334380971011	0.0426855488143023	0.0404589052461589	0.0410406914001475	0.0406754340447844	0.0410739352025021	0.0401277949804636	0.0409826294998719	0.0417232115841924	0.0437446191429341	0.0439548692610684	0.0438352999438017	0.0438993932381343	0.0454112937639104	0.0423602453220587	0.0416941534414772	0.0436854724636053
0.0180268328732057	0.0187635987213743	0.0212869564814773	0.0169415730857435	0.0174792241309863	0.0173800437875856	0.0180332047448865	0.0172180790094277	0.0165310926563371	0.0183834871099338	0.0178811649358875	0.0172184091311845	0.01981788087543	0.0190740179353861	0.02011267341351	0.0227885512602702	0.022974720506094	0.0237429090388216	0.0245126643073116	0.0220068422692704	0.0220068422692704	0.0193913009269586	0.0198772270952031	0.0192144712905001	0.0208954828166115	0.0205290828828346	0.0203076532123098	0.0175129291464277	0.015855897398044	0.0145774371335112	0.0149000427871801	0.013422611598335	0.0141074592631947	0.0176705757236969	0.0220050663005506	0.0220618378312303	0.0210412984660553	0.0198296208391143	0.0205518582766966	0.0229504971613566	0.0222162357592396	0.0223411330035319	0.0239328537253228	0.0251651840455726	0.028116693352472	0.0285606969861823	0.0248842397104152	0.0237136474530216	0.0240467703059435	0.0274664590050305	0.0297997214895819	0.028448052743682	0.0296768286990552	0.0330548962593353	0.0331044882090743	0.0333187749870015	0.0341787993403832	0.0305196141131288	0.0297343669819442	0.0294402962193636	0.0291077236152677	0.0293104840535531	0.0244913277207436	0.0249838004982521	0.0222993509126967	0.0215692312425331	0.0194984174977744	0.0190968525850565	0.019934001925202	0.019335528615318	0.0193111531113947	0.0198337335613502	0.0230423296792419	0.026572514862582	0.0252201198942523	0.0271575694773616	0.0291742692555886	0.0318634433462103	0.0309905880641193	0.0296536588721119	0.0279608858207991	0.0281009231891795	0.0255853053721678	0.0265996805504032	0.0280570577064166	0.0228183998575914	0.0205539740250807	0.0205529039112926	0.021025829517675	0.0227030946975655	0.0231751175275583	0.0255308182862015	0.0263645697587492	0.0254439918079314	0.0276266752685213	0.0287663731281482	0.0300860772433988	0.0319565108719635	0.0348761325397356	0.0369658345746983	0.0370035582253546	0.034338126990232	0.0304861393626158	0.0325058414046228	0.033039293281575	0.0341393741513562	0.0338602438146303	0.0333455331377868	0.0346267398680246	0.0305754705524633	0.0290175622202509	0.0267606963571818	0.0227848169452329	0.0219474784808603	0.0233480916025983	0.0227566668066614	0.020483674560223	0.0195103772929579	0.0187137300134226	0.0211091621290231	0.0202802140051105	0.0198042758324682	0.0204633341712939	0.0196311489286719	0.0223555914490062	0.0250725781705426	0.0244257008548778	0.0250972523162602	0.0307688446709236	0.0316923714794284	0.0324377317566607	0.0325148137652032	0.0313862705732106	0.0299426861261633	0.0275073085701326	0.0285938995944403	0.0293500555364853	0.0284786672282884	0.0260709051483194	0.025093834856171	0.0210484092120133	0.0178955878115037	0.0174800095281091	0.0170456940120348	0.0186982878786793	0.0202612390594007	0.0252079095817007	0.027726105308657	0.0272560468772554	0.0255506598472207	0.0234318520731792	0.0267610981881884	0.0298243625740072	0.0277797574616448	0.0300936700043823	0.029638126603465	0.0319184898953159	0.0323877994751604	0.0310425885739444	0.0274532206974894	0.0280064522018295	0.0282553993877987	0.034837541605171	0.0347061303337277	0.0357341724686199	0.037393137964783	0.0385207393130898	0.0390180326654065	0.0378976319301257	0.0377886878059736	0.0359027992616251	0.0350222687514563	0.0347193715238462	0.0350381291691198	0.0335066631947306	0.0325940983463821	0.0306896736992621	0.0309121665869353	0.0260938919569584	0.0251752173748555	0.0284568919714048	0.0277714678508495	0.0273912858571321	0.0270628927709709	0.028842383036005	0.0322369027571895	0.0325106413858341	0.0336516886434583	0.0339009312668915	0.0381551219477611	0.0375119603530615	0.0366758772603731	0.035432035735364	0.0318739317782474	0.0303332906919228	0.0287682741016749	0.0293307264721824	0.0283202060772425	0.0243430914399796	0.0220196503322848	0.0216514063885117
0.0179797364945757	0.0179089435378119	0.0163301868233018	0.0171619654700084	0.0171619654700084	0.0184281017052519	0.0198825401957316	0.0187674990481096	0.0193088014465369	0.0195239152016382	0.0188550217545556	0.0164903227131368	0.0153725559286879	0.0165766937194518	0.0157263663760327	0.0145043506352767	0.0143093900301365	0.0160842614884445	0.0160128083652361	0.017416921656827	0.0160154059965506	0.0135590196490826	0.0132301939808627	0.013685397390373	0.0130736434040595	0.014693738005822	0.0145888138893214	0.0164467717172845	0.0167437925338649	0.0168543873286354	0.0168914883239012	0.0157188970720228	0.0141858568993581	0.0141858568993581	0.0149171220170583	0.0162561385689974	0.0180220701786587	0.0175447907171596	0.0189838505167427	0.0202301144055115	0.017787053887598	0.0195957389661539	0.0193605726469041	0.018765977133855	0.018765977133855	0.0208853870856948	0.0200516356131471	0.0193354123102823	0.0217826536378067	0.0241948153773451	0.0232655933700879	0.0231619409869379	0.0217343977052501	0.0229456347163124	0.0215193871345405	0.0217718638181149	0.0223130219247862	0.0243509217399236	0.0249007339067252	0.025378207270365	0.0248714314240755	0.0221047907904414	0.0199596298282958	0.0185595330865445	0.0163476391806318	0.0166775125367003	0.0181530578726358	0.0165795793644914	0.0156229804659326	0.0152314388075995	0.0128965181758817	0.0143610800605178	0.0142384663784931	0.0137940566868022	0.0175939977247826	0.0170451832829415	0.0178260119252858	0.0201208535476925	0.0235664409977935	0.0248538386298837	0.0259467046639745	0.0252618569991148	0.0269795238363013	0.0277603524786457	0.0250223456498449	0.0265361528424227	0.0260093228803414	0.0268478010588899	0.0272580367097821	0.0264057549442293	0.0252656562333309	0.0215892367116496	0.0205827119368773	0.020765501981304	0.0213661668373672	0.018814748527633	0.0207214246414831	0.0212312600886584	0.0224438206033372	0.022553955500522	0.0263035407153748	0.025738110874992	0.0290436605243196	0.0282534846504515	0.0277184611825554	0.0262527848753513	0.0255817349097826	0.0268769398436857	0.0269924669475348	0.026035964216284	0.026705932682506	0.0258339346986661	0.0255449806720188	0.0227383977868373	0.0233079546408741	0.0229634948051548	0.0224389679741745	0.0237606986026255	0.0250047429777122	0.0252338883373111	0.0252052454599929	0.0275931224944636	0.0273594108365056	0.0257140848749318	0.0235455549285618	0.0242924935420613	0.024812050457288	0.0232421882429595	0.0214451169856843	0.0231830455416305	0.022583105480401	0.0218128544883365	0.0232278218233598	0.0199782618116135	0.0208383208077554	0.0191823545245601	0.018867012246007	0.0199498971567551	0.0195879262686111	0.0199920497432869	0.0213401721240746	0.0221470283878304	0.0207801919937558	0.0217848887306913	0.0202259757169148	0.0203219566943994	0.0223692775973911	0.0213904058748967	0.0215005752569822	0.0223085912450361	0.0214644999651387	0.0236710175809294	0.0220586691804336	0.0231652275465857	0.024311448826683	0.0271903208567259	0.0281779281274832	0.0299106343741292	0.0297110943021686	0.02874181769429	0.0291423285216727	0.033264879639738	0.0345059149780512	0.0338198149179394	0.0336598359698483	0.0329680195138593	0.0311617788247076	0.0316824993045045	0.0304301907754226	0.0297947210366316	0.0288949625586244	0.0299907574020631	0.0288875250862293	0.0298184661209671	0.0253477130490025	0.0246864979220845	0.0217269793540492	0.0200594764089538	0.020914293874194	0.0207936741780593	0.020125098087139	0.0192486324957406	0.0187255496993864	0.0170586901272821	0.0197746004313159	0.019330190739625	0.0196368378055776	0.0212808700742508	0.0203162467405852	0.0233919170053362	0.025260621610712	0.0281496930854739	0.0289698913767995	0.0298496929562747	0.0292213551134432	0.0308825121286015	0.0288183228778533	0.0278050480543957	0.0286432057348232	0.0281218014593564	0.0280160370966311
0.0178212700274737	0.0164099466037017	0.0154473788929599	0.0146665502506155	0.0134645267681993	0.0114823684137285	0.00936690510955648	0.00819248308009461	0.00763528930369468	0.00834296522404973	0.00834296522404973	0.0064969850752369	0.00694144956377337	0.00819547130856543	0.00823618303769861	0.00840388648607657	0.00900455134213981	0.00936000680816013	0.00928685408617083	0.00866616706823881	0.00884286259167836	0.00921901407322722	0.00903034251986566	0.0096310073759289	0.00896825157122594	0.0103140377055369	0.00966068081680809	0.00941507589352381	0.00906336815239993	0.00931937642423831	0.00992004128030155	0.00977490268612435	0.0112664284650558	0.0112664284650558	0.0100927125306481	0.0109264640031958	0.010967175732329	0.0129998220757724	0.0129311872740606	0.0126240920425501	0.014376698308544	0.0143345271212364	0.0133890769984881	0.0153115846694981	0.0133509251033691	0.0137349949280286	0.0177295905205444	0.0179868754079419	0.0189336465245461	0.0203351621848224	0.0183866986501755	0.0185679285834828	0.0178399306407376	0.0181586882860112	0.0186333551655399	0.018262113577357	0.0178983065811713	0.0182016618598759	0.0187652510836958	0.0172776246641043	0.0172739043786926	0.0169054686811613	0.015739042027087	0.0193445895094899	0.019038287268735	0.0197574921181675	0.0208558925129323	0.0210833980028052	0.0211675808116017	0.0193378869416084	0.0215353375717705	0.0210779953967837	0.0193236705610661	0.0181798446645045	0.0177014901471231	0.0161187976713584	0.0141391783623141	0.0119610475995095	0.0136861119392452	0.0114264570547356	0.0116184190097048	0.0134262306312883	0.0154267022842779	0.0125238479452433	0.0140129476773133	0.0140129476773133	0.0153184823601051	0.0180698127071044	0.0201463162107894	0.0210358755793694	0.0215748770023146	0.020093910648956	0.023419491325496	0.0241303666117672	0.022866945951001	0.0235712337172424	0.022446893442415	0.024146314239424	0.0234614665745642	0.0226277151020165	0.0201277749175527	0.0208507987066491	0.0230791325531273	0.022620845676137	0.022842662350541	0.0226876214381951	0.0239320678316835	0.0235798109660055	0.022629000005005	0.0216095618968097	0.0215512627688898	0.0241285080354028	0.024869938230199	0.0235427976152235	0.0208640290181721	0.0196707481990294	0.0179189437161542	0.0159914858067839	0.0131399782215158	0.0128565762387104	0.0121851184258833	0.0129801631738736	0.0150573866596351	0.0130979815628029	0.0118041791189249	0.0110045992323746	0.012768456424342	0.0121734781053081	0.0132211905394312	0.0141773108615147	0.0141773108615147	0.0134834711215934	0.0140416590311881	0.013630251138841	0.0131751708527107	0.0110979473669493	0.0116986122230126	0.0116365212743728	0.0115747862888647	0.0128624746402342	0.0121547987198791	0.0108008421891022	0.0123149788399718	0.0116073029196167	0.0140454358493855	0.0131838926610863	0.0118266254866697	0.0123180255245497	0.0131517769970974	0.0131924887262305	0.0139174764652484	0.0164663174349138	0.0165748992773898	0.0165748992773898	0.0165327280900823	0.0156350424174386	0.0171700249799551	0.0159358059615606	0.0185436451330268	0.0201505681571792	0.0218680378011407	0.0219245476231689	0.022341358702724	0.0215838589660683	0.0215228382295506	0.0196913927045381	0.0211349771515855	0.0215475530824745	0.0202118396420427	0.0198303472558875	0.0204838250122112	0.0187795978158152	0.0194875986304997	0.0185484805757081	0.0178870818286429	0.0185484889580208	0.019844788036446	0.0200485674473936	0.0221990106308725	0.022208224804579	0.0222924076133755	0.0212435423857265	0.021798252960922	0.024247585671393	0.02358482986669	0.0206866791344108	0.018398650150396	0.0181635611441939	0.0165034739647693	0.0136515939135568	0.0141238839099864	0.013698726017444	0.0128084647228681	0.0130004266778374	0.0154873044688155	0.0151946106490052	0.0136076753471472	0.0140129476773133	0.0149995006852443	0.0157690915108643	0.0203917476586147
0.00877420060522684	0.0072632522927189	0.00638892937058866	0.00638892937058866	0.00638892937058866	0.00785854143904746	0.00772358783535591	0.00883263868565511	0.00825135011527132	0.00859420280595877	0.0095886409988638	0.0105085776699256	0.0112461167230375	0.010604740137841	0.0118067157261568	0.0104547635905246	0.0112941281007538	0.0104452030502271	0.0104452030502271	0.00934585977512791	0.0091527564796822	0.00854032951235085	0.00916101653028286	0.00739234146351922	0.00775515796285027	0.00766366644513263	0.00690885633785307	0.0075937040027128	0.00852854618980912	0.00954974733382166	0.00994194636301467	0.0104154146953964	0.0111230906157515	0.0105405311277049	0.0105405311277049	0.0113351959504829	0.0124000612136739	0.0124899497461777	0.0122720925082886	0.0111400793623927	0.0111400793623927	0.00990321028843731	0.00959986697075526	0.0103633300300783	0.012776274863855	0.0144586138273847	0.0145207047760244	0.0138130288556694	0.0152446390906538	0.0142460731626214	0.0135148080449212	0.0139079895729802	0.0150179108587194	0.0150179108587194	0.0148546258991817	0.0144006800257282	0.0139527904711342	0.0112226934098755	0.0111496955387019	0.010486939733999	0.0121369428250918	0.0127436575730941	0.012035981652739	0.0131467245039152	0.012657490236108	0.011994734431405	0.0135824193375052	0.0142532487381414	0.0145071502898171	0.0147317260321456	0.0138252878368223	0.0129304760516519	0.0139106883553213	0.010376227549186	0.0104346210319485	0.011804316361668	0.0107356422972628	0.0132841347862335	0.0116964498801333	0.0131697593013899	0.0121846025609842	0.0118044199164491	0.0117402592695214	0.0132588565905463	0.0131053572155193	0.0141458593668279	0.0166499538975163	0.0164996080520745	0.0155847453706114	0.0169984869813471	0.0144499944923764	0.0158204262174344	0.0140824976614882	0.0135726622143128	0.0122214149897397	0.0116276231805996	0.0136907557779517	0.0127661169332756	0.0118235406980007	0.00992011102337552	0.00957423413972289	0.0097018404373674	0.010844288093226	0.0106810031336882	0.0100182473289852	0.0100182473289852	0.0107738879506088	0.0111739441133797	0.0125360613261078	0.0108740441434206	0.0124039216389028	0.0118032567828396	0.0127428011435502	0.0116549291039875	0.00924606867200414	0.00989034488728133	0.00934595392646405	0.0108155659949228	0.0108155659949228	0.0119661249121543	0.0109066693280755	0.0113589546709945	0.00940853538338383	0.0100661143625036	0.0118763123281413	0.0121363780176134	0.0126969770207328	0.0120762900028007	0.0117921903661368	0.0128050764132618	0.011335464344803	0.0144697783994397	0.0118079382389611	0.0135355535438883	0.0127212209664632	0.0140731731020954	0.0125034113131062	0.0129393742685865	0.0137678194219306	0.0136978569795108	0.0136978569795108	0.0157220664548662	0.0161807302727009	0.0169917107097322	0.0154037875082545	0.0161114634286096	0.0149845129797457	0.0152734074922624	0.0146291312769852	0.0152165231765364	0.0148811801699312	0.0135140780178332	0.0132913013500442	0.0132913013500442	0.0131445522711147	0.0124490099242396	0.0161882841713628	0.0172619200121381	0.0177810567934266	0.0184438125981296	0.0188116790295165	0.018676725425825	0.0184338001194162	0.0169554873614323	0.0180654086471715	0.0187759289019791	0.0193203198627963	0.0169956939853342	0.0175784135211374	0.0127355102013161	0.0135520876063133	0.0125054386909508	0.0118426828862478	0.0140410909013222	0.0135742711513344	0.0153057010204426	0.0153057010204426	0.0151463809614672	0.0155614746156891	0.0152817027895614	0.0155356043412371	0.0167571987631699	0.0161663903495122	0.014328242759452	0.0153084550631214	0.0141418108544464	0.0104652855876506	0.0120700699235721	0.0116862435240266	0.0116862435240266	0.0132841347862335	0.0116964498801333	0.0131697593013899	0.0117783922950376	0.0111195722515894	0.0125471155332772	0.0137060220715825	0.0137131185787284	0.0141458593668279	0.0157300172264545	0.0164996080520745
0.00621819817919408	0.00541134191543826	0.00541134191543826	0.00465570129381469	0.00529707787901111	0.00598192554387084	0.00556937450571006	0.00711080189861281	0.00675534643259249	0.00660037066703217	0.00660037066703217	0.00735567835791655	0.00735567835791655	0.00715941648684952	0.00671225100581328	0.00751910726956911	0.00894131249710988	0.0106703686803757	0.0104182618036156	0.00915176954296829	0.00964606921092903	0.00968678094006221	0.00968678094006221	0.0092153010533246	0.00859461403539258	0.00942744914302093	0.00924127989719712	0.00924127989719712	0.00843442363344129	0.0066106344723108	0.00572839333986461	0.00572839333986461	0.00514710476948083	0.00495289366532065	0.0062111956713048	0.00739442001541467	0.00697563860757636	0.00629079094271663	0.00669827958516917	0.00607759256723715	0.00607759256723715	0.00674034837194012	0.00659732752096978	0.00622446279358997	0.00698010341521354	0.00635941639728152	0.00543477755260548	0.00521648623643898	0.00403326189232911	0.00437725105299393	0.00466922396564352	0.00362035873799457	0.00362035873799457	0.00440118738033892	0.00373843157563596	0.00415099750129005	0.00390317521073784	0.00376822160704629	0.00452386222866985	0.003961324902492	0.00447116034966739	0.00412717118900257	0.00476854777419899	0.00533811804984867	0.00611894669219302	0.00673963371012504	0.00650319602859797	0.00714144404526603	0.007009902907245	0.00777063070343142	0.00831502166424869	0.0086996102109679	0.0103053786706048	0.0100780976550258	0.0114942104375858	0.00999129066409009	0.00999129066409009	0.00972029746892113	0.00901729048724261	0.00948766140011689	0.0116200292732786	0.0124047842135319	0.013730325599647	0.01312384369019	0.0135787412359656	0.0124057135644282	0.0117500736558124	0.0110188085381122	0.0116194733941754	0.0128896866407083	0.0136875097979585	0.012540591136028	0.0132777277390584	0.0148558890306774	0.0122376844578786	0.0119481150733078	0.0133406386585226	0.0130089326051704	0.0129271854339335	0.0129271854339335	0.0129271854339335	0.0125708395154482	0.0123103290761294	0.0117583110933274	0.0115790055052017	0.00920713265119798	0.00766740692208357	0.00724862551424526	0.00672062393094108	0.00608374096734986	0.00548307611128661	0.00557596092820721	0.00557596092820721	0.00626561194170204	0.00671277742273828	0.00664515938930817	0.00588951876768461	0.00693536957739583	0.00762021724225555	0.00804141767664247	0.00874909359699752	0.00860210395784745	0.00784646333622388	0.00798108400917624	0.00860177102710826	0.00826140869698837	0.00840550915604123	0.00917002130194596	0.0102821777829554	0.0126011278067558	0.0143936556826792	0.0137088080178195	0.0123159284072009	0.0135779920103293	0.0129773271542661	0.0129773271542661	0.0118851602495965	0.0139249402451833	0.0140729276879519	0.0138867584421281	0.0118682245514313	0.0105420003013751	0.008139423815846	0.00708332567059169	0.00774608147529465	0.00716479290491087	0.00782760261199662	0.00860843125434098	0.00979165559845085	0.00997353904667578	0.00921838712227122	0.0085977001043392	0.0085977001043392	0.0085977001043392	0.00958644869657629	0.0102041556417924	0.0105869315360361	0.00992417573133316	0.00930348871340114	0.00842238769014889	0.00842238769014889	0.00758315250670384	0.00698248765064059	0.00534845590691152	0.00534845590691152	0.00534845590691152	0.00669964272981628	0.00573956695257373	0.00602548807174983	0.00632755984236581	0.00632755984236581	0.00708320046398937	0.0058792865526151	0.00638912199979049	0.00670788864382864	0.00791883550467474	0.00791883550467474	0.00869966414701909	0.00986474212576838	0.00901587747690996	0.00910973453276074	0.0098780398215773	0.00959846448688368	0.0100499706307804	0.0114376581461595	0.0121008503705215	0.0137995175846778	0.0131367617799749	0.0116338420064792	0.0108530133641348	0.011824919808381	0.012100330116115	0.0139190408938905	0.0141052101397144	0.0153137328385001	0.0162717803613286	0.0145871602321686	0.0134362893183073	0.0138982378626508	0.013213390197791	0.013213390197791
0.00680802814152295	0.00562226059550926	0.00490239323417647	0.00619792685891849	0.00657183646347215	0.00597117160740891	0.00578322537757648	0.0055006709459801	0.00654403051343466	0.00776538238742992	0.00776538238742992	0.00626415714598435	0.00626415714598435	0.00573732718390311	0.00633799203996636	0.00617470708042858	0.00487917345568656	0.00384250804642993	0.00452735571128966	0.00582604479229827	0.00582604479229827	0.00525439314213371	0.00572307341246078	0.00572307341246078	0.00572307341246078	0.00721477734107634	0.00819589303394402	0.00759522817788078	0.0070508372170635	0.0070508372170635	0.0070508372170635	0.0071728458159596	0.00656624274862515	0.00605640730144976	0.00561618031395378	0.00582061546957277	0.00644130248750478	0.00644130248750478	0.00694060091566892	0.00726225875890666	0.00770942423994289	0.00770942423994289	0.00770942423994289	0.00770942423994289	0.00700358851162613	0.00654151751455535	0.00694678984472145	0.00694678984472145	0.00621552472702123	0.0065343820697998	0.00613096190251098	0.00655518802327454	0.00525241448716912	0.00655699327087874	0.00838788817086734	0.00838788817086734	0.00792581717379656	0.00840494047306966	0.00840494047306966	0.00799966814290356	0.00791548533410707	0.00791548533410707	0.00626826505304143	0.00683080237921929	0.00552666998931991	0.00573375184947745	0.00285055731142812	0.00328739679310765	0.00417765808768357	0.00472305369539537	0.00569045579185148	0.00655199898015076	0.00655199898015076	0.006999164461187	0.00820705773840965	0.00813790955465959	0.00870044688083745	0.0099587488868216	0.00992304152272499	0.0107845847110243	0.0109446273168747	0.0110406082943594	0.0109617690353408	0.0112274809241481	0.0116280013389772	0.0128214435942445	0.0128414657561133	0.0125535091499524	0.0120601200075246	0.0126379993898014	0.0120003844017492	0.0120548430100518	0.0123784491057474	0.0110247899266164	0.0113508895712672	0.0100327116234658	0.0102400859246857	0.00817116605780146	0.00733741458525377	0.00652805601396019	0.00697522149499643	0.00772824825291054	0.00844811561424333	0.00782742859631131	0.00790889583063049	0.00684693803905907	0.00827448132074692	0.00745010746534817	0.00745010746534817	0.00745010746534817	0.00745010746534817	0.00895133270679373	0.00822006758909351	0.00765835548494209	0.0064932775061928	0.00639409716279203	0.00768963078753405	0.00746287553602447	0.00746287553602447	0.007937685110895	0.00765513067929862	0.0098435460636337	0.00977938541670599	0.00827816017526042	0.00827816017526042	0.00827816017526042	0.00775133021317918	0.00835199506924243	0.00851470289723877	0.00709761164058161	0.00658777619340622	0.00683988307016637	0.00762853083289701	0.00709500671261783	0.00645433853016101	0.00764392429694521	0.00764392429694521	0.00764392429694521	0.00975631524349278	0.0107374309363605	0.0101367660802972	0.00886111000177972	0.00886111000177972	0.00886111000177972	0.00964587440537878	0.00784968557126013	0.00733985012408474	0.00689962313658876	0.00751598020031636	0.00813666721824838	0.00887364783023601	0.0080152786284805	0.0089996922764212	0.00944685775745744	0.00944685775745744	0.00944685775745744	0.00990892875452822	0.0082789510320699	0.008684223362236	0.008684223362236	0.00916463587147674	0.00907726696948036	0.00962632686897417	0.00808248999323071	0.00848177512376268	0.00789192035348364	0.0103279494104967	0.0106719385711616	0.0106719385711616	0.0109906962164351	0.0106889908733639	0.0102837185431978	0.00891402321347831	0.00898785810746032	0.00753847829957434	0.00739333970539714	0.00608920731549776	0.00552666998931991	0.00490000037692976	0.00328739679310765	0.00484041389238654	0.00606965251806355	0.00621275489251199	0.00689760255737173	0.007759145745671	0.00820631122670724	0.00820631122670724	0.0094142045039299	0.00990759364635769	0.00990759364635769	0.0111301882882452	0.0111301882882452	0.0121931907685228	0.0124089549487538	0.0113191683802247	0.01166994423157	0.0126828916137305	0.0149441863679661	0.0145170430487986	0.0149898142388242	0.0142290864426377
0.00415690205716764	0.00415690205716764	0.00357561348678386	0.0035931744855199	0.00437400312786425	0.00339171519354161	0.00346316831675	0.00364575369097087	0.00311892372888963	0.00311892372888963	0.00364575369097087	0.00396497601539899	0.00396497601539899	0.00396497601539899	0.00396497601539899	0.00396497601539899	0.00342058505458171	0.00263975641223736	0.00205846784185358	0.00250722309921674	0.0031699789039197	0.0043377378655337	0.00409346233504885	0.00409346233504885	0.00345208574985243	0.00429686309504655	0.00470213542521266	0.00528342399559644	0.00573058947663268	0.00694830109532702	0.00694830109532702	0.00560928454338794	0.00613611450546917	0.00455342202970442	0.00430559973915221	0.00530551589126063	0.00530551589126063	0.00493821190970631	0.00480472770673132	0.00541967448107425	0.00518237507135529	0.00397956896869549	0.00351749797162471	0.00351749797162471	0.00351749797162471	0.00299066800954347	0.00299066800954347	0.00170819742583867	0.0025150536895945	0.0025150536895945	0.0028124411141261	0.0028124411141261	0.00296664403907893	0.00340348352075847	0.00406623932546143	0.00406623932546143	0.00406623932546143	0.00406623932546143	0.00406623932546143	0.00406623932546143	0.00362668704325993	0.00542068801409417	0.00604478749769671	0.00604478749769671	0.00595190268077611	0.00475229263059345	0.00524568177302125	0.00510975593039952	0.00542151811823981	0.00624557185624422	0.00624557185624422	0.00624557185624422	0.00812535581218255	0.00596405085979399	0.00693804630291146	0.00656283152868843	0.00656283152868843	0.0064269056860667	0.00771034850870168	0.00721695936627388	0.00669012940419265	0.00637836721635236	0.00555431347834795	0.00617500049627996	0.00700875196882765	0.00512896801288932	0.00512896801288932	0.00543846653266293	0.00692126976032566	0.00692126976032566	0.00611123144114759	0.00549054442321557	0.00607183299359936	0.00677950891395441	0.00715905636156054	0.00763652972520035	0.00701584270726833	0.00687247632498932	0.00749316334292134	0.00795523433999212	0.0059868927122413	0.00429867585486238	0.00487996442524617	0.00502724693972127	0.00502724693972127	0.00542824630366013	0.00523040583048046	0.00631417492485295	0.00636353152329438	0.0056731464330257	0.0056731464330257	0.00491254267879121	0.00491254267879121	0.00491254267879121	0.00491254267879121	0.00433125410840742	0.00434881510714346	0.004954212078921	0.00553550064930478	0.00520825057635026	0.0044526099547267	0.00392577999264546	0.0044526099547267	0.0044526099547267	0.00477183227915481	0.00477183227915481	0.00477183227915481	0.00477183227915481	0.00477183227915481	0.00422744131833754	0.00344564979094949	0.00420337777250479	0.00331311647792887	0.00551649597162563	0.00576431826217785	0.00552004273169299	0.00487866614649657	0.0052459701280509	0.0057234434916907	0.0061287158218568	0.00671000439224059	0.00791281049490039	0.00837488149197117	0.00756898811325904	0.00679250888749781	0.00665658304487608	0.00486813706533007	0.00615060764903487	0.00586805321743849	0.00586805321743849	0.00584473839654898	0.00536726503290918	0.00598221180725211	0.00529774691649691	0.00408003529780256	0.00466132386818635	0.00466132386818635	0.00409878654200849	0.00357195657992725	0.00357195657992725	0.00309634225997828	0.00309634225997828	0.0037377188451747	0.00339372968450988	0.00365598116370565	0.00398477209114225	0.00398477209114225	0.00464752789584521	0.00406623932546143	0.00479750444316165	0.00479750444316165	0.00532433440524289	0.00532433440524289	0.00667878309387563	0.00667878309387563	0.00730288257747817	0.00730288257747817	0.00720999776055757	0.00601038771037491	0.00636785101018098	0.00689468097226222	0.00720644316010251	0.0072992317804067	0.0072992317804067	0.00711639097899028	0.00865218577426379	0.00693804630291146	0.00619940019619374	0.00708966149076966	0.00708966149076966	0.0076164914528509	0.00774378932835512	0.00669012940419265	0.00669012940419265	0.00637836721635236	0.00617500049627996	0.00617500049627996	0.00563880346006471	0.00512896801288932	0.00415497256977185	0.00633998118994188
0.00752111241232318	0.00662126598548559	0.0061278768430578	0.00539661172535757	0.00576093452489334	0.00535566219472723	0.00493688078688892	0.00427412498218596	0.00381205398511518	0.00381205398511518	0.00418669201557214	0.00398715194361158	0.00419423380376912	0.00300846625775542	0.00300846625775542	0.00300846625775542	0.00300846625775542	0.00206285488783588	0.00300543112311085	0.00373669624081108	0.00373669624081108	0.00451752488315543	0.00403123667998077	0.00469399248468373	0.00411270391429995	0.00406000203529749	0.00460439299611477	0.00509778213854256	0.00582904725624279	0.00582904725624279	0.00718029448081589	0.00674755369271631	0.00667904437971905	0.00700119864048735	0.006220369998143	0.00578762921004342	0.00512487340534045	0.00512487340534045	0.0052157028142283	0.00453337817700354	0.00380211305930332	0.00434650402012059	0.00445958442742655	0.00457794927131224	0.00340535801943388	0.00308320375866558	0.00308320375866558	0.00453600237941936	0.00453600237941936	0.00453600237941936	0.00504583782659475	0.0049385621129593	0.00458310664693899	0.00458310664693899	0.00311877901505993	0.00311877901505993	0.00307671022828898	0.00407354227950571	0.00407354227950571	0.00413169197125987	0.00324143067668395	0.00459773615437076	0.00498993518356376	0.00448009973638837	0.00398671059396057	0.00464946639866354	0.00525013125472678	0.00622099376079438	0.00665146302375544	0.00603077600582343	0.0050339439546067	0.00541349140221283	0.00479280438428081	0.00419213952821757	0.00343649890659401	0.00390584306570028	0.00390584306570028	0.00390584306570028	0.00450957952164459	0.00357942874471016	0.00389119093255045	0.00375269458223899	0.00375269458223899	0.00383521813170363	0.00383521813170363	0.00445590514963565	0.00445590514963565	0.00445590514963565	0.00359436196133637	0.00359436196133637	0.00494631409696861	0.00367982183632134	0.0036197338215087	0.00330797163366841	0.00301599872101882	0.00339554616862495	0.00440308724001297	0.00529230155625121	0.00529230155625121	0.00691729189990427	0.00758004770460723	0.00847989413144482	0.00897328327387262	0.0083525962559406	0.00893388482632438	0.00875786858610671	0.00917664999394501	0.00983940579864797	0.00992192934811262	0.00845231727965383	0.00748680690630085	0.0077901621850054	0.00633534486630949	0.00716565694630287	0.00662126598548559	0.0061278768430578	0.00481532315497379	0.00576093452489334	0.00535566219472723	0.00427412498218596	0.00427412498218596	0.00381205398511518	0.00418669201557214	0.00340586337322779	0.00398715194361158	0.00419423380376912	0.00300846625775542	0.00300846625775542	0.00300846625775542	0.00206285488783588	0.00206285488783588	0.00300543112311085	0.00373669624081108	0.00373669624081108	0.00451752488315543	0.00403123667998077	0.00411270391429995	0.0035501665881221	0.00406000203529749	0.00509778213854256	0.00582904725624279	0.00582904725624279	0.00663590351999862	0.0066704590336405	0.00741030949741928	0.00700119864048735	0.006220369998143	0.006220369998143	0.00578762921004342	0.00512487340534045	0.0051418679202463	0.00519814181549226	0.00506020813908478	0.00432894302138455	0.00579327065326362	0.00498641438950779	0.00510477923339348	0.00393218798151512	0.00361003372074682	0.00417257104692467	0.00506283234150059	0.00577050826185565	0.00577050826185565	0.00515284889088656	0.00622752660369814	0.00587207113767783	0.00532768017686055	0.00440774350579877	0.0037449877010958	0.00436567471902782	0.00536250677024455	0.00536250677024455	0.00542065646199871	0.00552325905267904	0.00557122375394755	0.00593106069960496	0.00666232581730519	0.00558764810449361	0.00625040390919657	0.00782193127132741	0.00806175929444246	0.00763171351635646	0.00699033693116004	0.00701442891274586	0.00701442891274586	0.00639374189481385	0.0054008780095576	0.00571524640310355	0.00523777303946375	0.00450650792176352	0.00450650792176352	0.00484247225777183	0.00451298633690065	0.00495087130911911	0.00495087130911911	0.00495087130911911	0.00503339485858376	0.00565408187651577	0.00657401854757756	0.00657401854757756	0.00511181050321504
