0.68683592861921	0.661690941678231	0.673348046660106	0.690291931286947	0.693468012099709	0.717780319738581	0.722719418840007	0.712435377929858	0.725225113249318	0.712974581751018	0.692694865856528	0.704283737907034	0.70271025417955	0.713280891116199	0.72772171017821	0.725578816344645	0.720657620077221	0.695932683808386	0.703017025285018	0.682821722447928	0.666719324772509	0.664448093963476	0.686636636180803	0.684590416505661	0.682137908974096	0.688002195248461	0.662629430931819	0.67645003237996	0.679022289723395	0.679863190338412	0.665570869332215	0.666272475048731	0.686341667085411	0.684652563524992	0.664749845016684	0.667052741999017	0.669741704358706	0.661892398179018	0.657656646829936	0.640627365967817	0.643389085600347	0.66229060263436	0.655839312947877	0.648939538239609	0.643952406919609	0.64241284003043	0.639011287071073	0.646377698488336	0.646641540742513	0.643123655831126	0.663512154713754	0.662980740893995	0.674359918438347	0.661641143389343	0.661876937306331	0.677347426508735	0.673495051821477	0.668200940159053	0.696205284241042	0.689633779744679	0.692359735957384	0.695208993064193	0.692749135132667	0.684749886274154	0.665530198567777	0.649071000035069	0.643028395352336	0.658853552970581	0.646869787970181	0.636209147391976	0.625533691456256	0.618069869992888	0.612677990898556	0.609030781400891	0.604210025537328	0.602687848200251	0.615550562345654	0.613634326402872	0.627706437524852	0.614029520504375	0.605304255639435	0.622739549423273	0.620084761268163	0.615454554721788	0.616739722472113	0.618027032337111	0.630285108763026	0.630290294255911	0.606854242976158	0.627349838156853	0.610541183359793	0.61734095632619	0.625487963994921	0.617249132111865	0.610856570233998	0.61121298602333	0.600989500379165	0.607329013876998	0.599685133043878	0.601949873705482	0.627470862311457	0.629231357102138	0.648502477968514	0.633353988431761	0.613085464827543	0.61148649994708	0.608711039574919	0.611705311847728	0.607351644886812	0.601768953910329	0.597692621269383	0.597640270939788	0.573934836713202	0.553858837819961	0.547299877833909	0.529577381707531	0.527856405856109	0.520306305001432	0.51727909137398	0.509533803710928	0.527780497802113	0.521865646739668	0.520016099859115	0.52114575536748	0.516428853671071	0.52325503047632	0.502775944117508	0.510517967249566	0.52573334619719	0.524499381985609	0.528607572972035	0.542238488959822	0.529866545648668	0.537110306676124	0.528735073096154	0.512680393420011	0.521833093768589	0.51847619774943	0.524753622153438	0.54459890550951	0.54209023337603	0.535018113945248	0.509772829240038	0.508848132226043	0.501701008809025	0.486301139168489	0.485188620891838	0.500441547826766	0.500316571773782	0.489079393643829	0.489718450531835	0.463243465965758	0.471618735582311	0.479521927795916	0.489786404131631	0.469570486679572	0.461429463863068	0.472432175966789	0.46619914485643	0.445313028863081	0.434176200572344	0.439824861262539	0.432526080381939	0.4351041509265	0.423490355549541	0.422792531199119	0.43131800420879	0.42890233446203	0.422175744488195	0.415915655327179	0.415715242617091	0.417723199062144	0.428512720851447	0.425618472700031	0.42603267222889	0.426486104055521	0.410571390122459	0.408074927957087	0.395738085877726	0.391968190117753	0.405424773077457	0.407914114340905	0.395109050706251	0.406568765221242	0.401092259805577	0.401609716248479	0.397062870876282	0.399796657460768	0.404568395888325	0.400520762725817	0.393694793382959	0.38474358290128	0.383646088267476	0.36336166217735	0.369261285586209	0.364662494691118	0.350956810942969	0.345571522675541	0.336249638635886	0.327947622439193	0.32423456372145	0.3296474946793	0.322606081759151	0.328255570678645
0.63065221218279	0.621138467661397	0.633005687145389	0.613318145706875	0.601927418843679	0.580011869987277	0.578260552092695	0.586505657993725	0.571121586621075	0.579219794589924	0.57256758873199	0.565093640087805	0.570279956227637	0.568114796897696	0.564769440454633	0.572246822902117	0.569518427005824	0.584000510685228	0.565997159665189	0.566171515575301	0.562853137559268	0.56701119912045	0.568869916955416	0.58771359420626	0.564118036857992	0.560240385389874	0.545787665398342	0.550175370935955	0.52349834402752	0.5081619063045	0.51470213664709	0.524402754050409	0.52759078458001	0.522441131418996	0.52560888542584	0.518072166848487	0.53336883758121	0.530084124066799	0.544544479242613	0.533293743510099	0.55175080663186	0.551842312364712	0.571363888775332	0.560178444269927	0.564361844318006	0.565612980140346	0.5626232030086	0.565600176498733	0.56609021604486	0.580894047287187	0.567558992903843	0.579401382266294	0.580145271567948	0.578773865137132	0.570316859836358	0.571038964614184	0.575885851038801	0.582893277264777	0.589372591706965	0.565702676811013	0.572113202806117	0.565881822522472	0.56945705661268	0.560485332471237	0.558004574528123	0.573398725086281	0.565804957565924	0.566569509338351	0.553230708176198	0.542190947948762	0.533027849522069	0.538002793971516	0.52046752238148	0.513366780452042	0.508782984383139	0.518308763375603	0.525630147099132	0.513990364213596	0.533881418646773	0.525360186133403	0.522006356392103	0.52839952847522	0.543073154715171	0.54545042404059	0.560380779161809	0.563701703469191	0.569289096277874	0.570716750489243	0.556617024416628	0.551765558677887	0.526954656348177	0.521622063242611	0.527829400449475	0.518694313961326	0.50151738921262	0.500974688826731	0.495194147432954	0.489737578668705	0.487977557139076	0.480630133827561	0.478277908980129	0.471206518429393	0.457971096659494	0.452845555081855	0.447767479974838	0.452301149220498	0.449304272668133	0.439906842045979	0.436251735419932	0.436937467519803	0.422581369935605	0.414148480133897	0.410524141880109	0.421347002362366	0.439558046674735	0.447628186820965	0.448870123207277	0.46112690657095	0.472469524783441	0.479091520763289	0.467003838305013	0.476209559822983	0.47096101521321	0.472826300552572	0.475056108281685	0.468375972200719	0.461256926961001	0.46627950603116	0.448108106936652	0.434323214158335	0.41732703914334	0.416757280396269	0.424959858052271	0.416193534247956	0.425907840920373	0.412299804676745	0.402678543079586	0.409037674453999	0.410230659183189	0.405038884275438	0.415199203260221	0.414504505481093	0.429607882260635	0.415040366742911	0.40647376274729	0.399409544466082	0.399746297202787	0.406514026736832	0.42310423524973	0.399654464339149	0.394129462478898	0.383482317761311	0.385399311729856	0.363863889773327	0.34402560448035	0.34696598807109	0.350709552703703	0.349291838071811	0.345058658407009	0.340926398804267	0.336488616978979	0.350019296221863	0.342673664326345	0.349717730547675	0.335929682154402	0.352177489007911	0.355378502356946	0.368799015411324	0.35985324167751	0.362986679980208	0.357111313502692	0.364173912166573	0.356161228076281	0.359098810384201	0.368591437954625	0.360273149816688	0.365979033704884	0.359219058105456	0.356735851656785	0.349823618167478	0.347247667838055	0.347769564003257	0.34560775732632	0.341272891230912	0.328287864751497	0.321513804715754	0.313430827051085	0.318405771304004	0.316232692044096	0.315139737085388	0.319894790799273	0.309869372445198	0.317900560040788	0.310470527788153	0.310653328205724	0.303627058728272	0.304057862345838	0.296796923848524	0.296841721929557	0.287597698912872	0.293996061052966	0.29032105856486	0.281135001236456	0.300892608081976
0.48419731791369	0.492664631038995	0.489641809208018	0.477184705113435	0.470125468041817	0.444461760926771	0.424453457184623	0.412699797806256	0.412905290123018	0.407354489091174	0.41879544536572	0.418425090825016	0.440231493360445	0.432779567375732	0.455075847559846	0.460122047773273	0.453508367212135	0.460589759942682	0.458202653892356	0.458218962214613	0.471029898458426	0.482958305344859	0.476305661000791	0.495824985033856	0.466282296405899	0.476600103536274	0.449513333926386	0.455290183152509	0.465157772299514	0.464169840815159	0.482191579300497	0.498028840580601	0.483535454317508	0.462758251473755	0.484235292354415	0.478780833637868	0.497472931321127	0.496092009011634	0.490413744458025	0.488532331235187	0.474682200305925	0.47443414956844	0.460288198118736	0.456807242017499	0.455320304401869	0.476219852694642	0.450319705482137	0.445331355383969	0.446147542643963	0.44184006655277	0.443676134098979	0.434009235786999	0.432233457186104	0.448330105757522	0.440329779461549	0.424661613407999	0.424972177633465	0.415341649053443	0.422531529497539	0.42003079092117	0.417685741987207	0.407589177573249	0.416489049509855	0.430742029215911	0.436194437584724	0.434344452760954	0.442133417292373	0.450240947777993	0.454846627731935	0.457784317131283	0.458685841345407	0.456301502356968	0.444679013125731	0.442887160470976	0.455999209414008	0.440137273697279	0.430447944149686	0.413768370681807	0.416792845924312	0.412847128803017	0.408965024401375	0.407633149369138	0.41008017726147	0.419335900863892	0.432789265507544	0.431102147083749	0.405676736154376	0.418627471846706	0.427398482752814	0.43915953286428	0.437789487293599	0.431840972732399	0.42614006591543	0.424490321036889	0.409808025501807	0.396779686647998	0.392010538348585	0.391774499419093	0.395783290797182	0.388994039182715	0.387097437846866	0.370833027283008	0.368690177522738	0.384236386179491	0.382840114775018	0.378286204530009	0.395999023934586	0.393022666447585	0.388588728565587	0.395602078567037	0.38270888961337	0.384203896468706	0.381828380894766	0.38556635876456	0.378581319109782	0.370585900941111	0.371553833966636	0.37659612613136	0.372402915336223	0.383084840877005	0.377655213543411	0.37242446001755	0.380831668205753	0.368431749779642	0.356122878862716	0.351781396013808	0.363721666163919	0.35553508845389	0.345179931594714	0.332868401545743	0.312731291526192	0.303921946146489	0.298965448724969	0.300401791836063	0.291813554891497	0.295539633703365	0.293812444176206	0.308533038006452	0.29873619528362	0.313647135193721	0.316908405363431	0.317002007933082	0.318737109767542	0.315010888875374	0.308964415526821	0.318858620951717	0.328709267900751	0.326517050818109	0.342882520079848	0.319743404674008	0.321006960523047	0.306286898617913	0.305328385956595	0.306539843369189	0.30661643415362	0.314002999876333	0.327444543401465	0.314481422975479	0.298571265725467	0.314153494735908	0.30727821220289	0.314122655468847	0.316206127897751	0.310114824747695	0.313486423191537	0.302533020710339	0.298300092903828	0.293214251503009	0.288703357052826	0.285540583868183	0.29380215849981	0.27483181022847	0.272221611035259	0.281721855707903	0.280110806855043	0.282661140940049	0.273797028755641	0.271803586258144	0.293482537420412	0.281850281406115	0.274793496601819	0.269693642949662	0.2697512352495	0.27002955596719	0.269776080223484	0.268638603639067	0.250869056291374	0.254631644848239	0.265970697721143	0.278616197301887	0.275137621584058	0.283465971871315	0.287586088900548	0.289547330988854	0.294413959578895	0.295578100371234	0.293715635410378	0.282085087413382	0.285460729444141	0.281909740511416	0.272418444631377	0.266783719011709	0.253651094009643	0.254116637846136
0.387394823839931	0.372436547471105	0.379994620777768	0.4006321159937	0.399227630454047	0.409937203317078	0.412122878518123	0.411478845215216	0.402022783093712	0.40116643223091	0.389987797659648	0.395493937034246	0.406368702070797	0.407518121073167	0.414973426434445	0.409663446252632	0.413602838742059	0.387248313148308	0.375350746777397	0.369859511800109	0.362045318550938	0.361206741786988	0.357216725481722	0.354055447616923	0.340511394485584	0.341563758899237	0.337973184007852	0.325294623428856	0.336977752097313	0.353780716751427	0.364612987272993	0.362915251114463	0.369203128829874	0.363224646842453	0.377785708259673	0.383903936156574	0.394151366285763	0.383164539803857	0.377247712502141	0.378842596325272	0.369401644225371	0.36868459212936	0.361003191618931	0.373036442498997	0.364483904510415	0.366033858375915	0.354636695884461	0.351081469453125	0.345112286133379	0.348746260250469	0.345962217608829	0.338986965044147	0.328437684240822	0.336979630340154	0.334917533803514	0.334508508651985	0.333546853719656	0.329610954418925	0.322664732858155	0.330771293870372	0.340694005700719	0.339032348570304	0.334751456593464	0.336309894684948	0.345720190921908	0.341703972927127	0.345572583280972	0.336979568156118	0.352563655798507	0.357629509246479	0.370309261006894	0.365606635649423	0.362797124486713	0.365198213232076	0.369278695253342	0.364665012991564	0.366872833330088	0.353625940550653	0.348614544340385	0.350234206997107	0.34044204565968	0.333483447603361	0.330442131255683	0.331477229313237	0.324605029882486	0.31323030405799	0.31820003845506	0.332841158941993	0.317823637302298	0.319304157143589	0.321348030104068	0.314166113194221	0.307268552189258	0.320799408316781	0.330756945902574	0.333710358941047	0.331325699766573	0.34748973407887	0.347297557011743	0.34287257333368	0.364747930766434	0.370737340118785	0.378310995812583	0.381120726680993	0.382332205685388	0.370842038970922	0.354046305517383	0.350855539756308	0.363109924689283	0.355611343743248	0.361421358089718	0.361036509000136	0.348415947422522	0.346729897322836	0.343806137683534	0.333185122616488	0.321870184122828	0.317798176542903	0.322966616150743	0.330196462276077	0.31575608742033	0.323345244777755	0.306233616781103	0.308094081957479	0.293203058510025	0.281610109899505	0.27495048338819	0.277773347033346	0.289380043716242	0.283847020549956	0.283805712442779	0.275860116740496	0.276053307720468	0.274945856605484	0.278276219524217	0.264313756098955	0.26908048476212	0.282194902169665	0.274340596778728	0.283195416975199	0.291094453600505	0.291587416264544	0.277258933334288	0.267291687869132	0.261733422786948	0.250666563972929	0.246475897830577	0.244883910057314	0.239935588080294	0.223036736127542	0.227882850876745	0.221291848022394	0.2066248754518	0.215581832905499	0.223119699252362	0.230802252667779	0.228989719197133	0.237425067908422	0.237037422034476	0.243831672412334	0.246981663260811	0.257859311073312	0.243644668245706	0.245653107386972	0.244918248201773	0.237005219517523	0.242512609597375	0.236485279741202	0.246815174570639	0.228261014101008	0.227924910605352	0.220930276861719	0.215050740824668	0.210031721271101	0.214457047301816	0.210822170556567	0.204489199833968	0.202381686961795	0.203915477056787	0.202615007875064	0.19586720216746	0.199854623665536	0.195306709742836	0.191080433525261	0.194317407876425	0.20069946143407	0.193499224361103	0.186806473451231	0.189526402408275	0.193056857268218	0.187109216836748	0.189887794444392	0.191208569285536	0.197728829998863	0.206602358300575	0.211234973567829	0.213543921357905	0.212337903923946	0.218606089549366	0.225897768561602	0.223415334515392	0.219818927709381	0.213341958416702	0.208307016757952
0.33011040697601	0.31634225159552	0.310844654507471	0.316249657161617	0.319939923701525	0.322542850051793	0.315632003456545	0.315911465987367	0.31463765523911	0.31440846376506	0.310795170727645	0.322502843690144	0.326765162642226	0.328843932678588	0.328221609173775	0.328298472561864	0.328097288056069	0.329064971531979	0.320762878053091	0.316699434630827	0.313475133802675	0.317457841567079	0.329912928747947	0.323048957631792	0.31291566956483	0.305969846774672	0.289035030283871	0.283953138588422	0.283932358566988	0.284477116238005	0.290337393501493	0.285165756083304	0.287748769370557	0.289323265930751	0.277674129308794	0.285728548638092	0.295308295695316	0.299439248344626	0.309772835631688	0.302882815846476	0.296802608263799	0.293380022296869	0.281239421423803	0.275831801014638	0.266533243392717	0.260732614533753	0.261084503821816	0.264858120320447	0.2562194136883	0.265182261530966	0.277756877884359	0.277110500702102	0.283378452030928	0.275592184218828	0.289296907773813	0.293108157018429	0.290226428155833	0.289189232402261	0.291711162929348	0.28369305888223	0.282906156508205	0.265516997156769	0.252860180945235	0.260724121359697	0.254908431233911	0.2657774158129	0.264607719687692	0.260963732129067	0.269256550066757	0.275279677767268	0.270807344544644	0.269049838597435	0.26615369349233	0.280734101621281	0.280014397785781	0.281004573836025	0.282452523249406	0.2799232802234	0.284045347733936	0.289814424454058	0.28028287003186	0.270246663671131	0.266929400289179	0.274571356340383	0.280596825585913	0.276556928254257	0.274709367502608	0.269169428203138	0.277749061009871	0.280717497884738	0.282394646866439	0.277246352486463	0.281472327040292	0.286715499597446	0.291398417094871	0.285404030864815	0.28624300202015	0.27659190033995	0.288096373096427	0.290926383555245	0.272192467342249	0.262144447374094	0.246713436942598	0.259478568564717	0.247781014865306	0.253129568361003	0.257710870914849	0.251478749344492	0.244591868209512	0.247745724249459	0.239493395103676	0.230850614413296	0.241187556794062	0.245963898211522	0.257053683880857	0.249708238784956	0.259717281182571	0.254825397664382	0.245342873465465	0.251956497213801	0.256791716905027	0.265259085430816	0.257369972308207	0.259697024436729	0.245647860700926	0.245973713211855	0.233128566059882	0.227398110521616	0.228671090185112	0.218613604901387	0.218567730304071	0.215635450141249	0.211501400112717	0.208587468382402	0.211712759963039	0.210814104498277	0.217641305101187	0.219028496214576	0.225894843254252	0.229850340208451	0.227479445484323	0.234368261959218	0.235979561281822	0.226068213001411	0.218362211457991	0.214214856638191	0.210836885273628	0.216492490859213	0.208233297806352	0.199009204149154	0.18890346399347	0.172013063617303	0.170247202973731	0.171153431808516	0.173675032067435	0.180806546289562	0.184179745249276	0.181413647714595	0.18829819912535	0.181056818014962	0.186654976304027	0.193645211399765	0.196235416221839	0.203638122879264	0.194808015394316	0.189769299358245	0.185989479325262	0.175172547774786	0.172456327725455	0.167659287980165	0.161155786076447	0.157914574276	0.162494635178401	0.161557969619617	0.165869198439356	0.175391758773881	0.175947869329429	0.180147717239523	0.180996721392198	0.192987305314034	0.195942270139307	0.193916413694471	0.194416175421211	0.196545348036584	0.187699180992805	0.174482473570359	0.164591286533013	0.15762261850008	0.167235005480941	0.168327214135444	0.171086163194189	0.165779413835852	0.160535286596476	0.169140428970898	0.171510644787752	0.169636348575797	0.167332263998948	0.172119727507706	0.180830406789645	0.173957115414408	0.173324169411882	0.170111072972068	0.165159697550617	0.172211271045314
0.226589415071236	0.236634288895514	0.247308987735262	0.230708987263403	0.22409396428711	0.223222224442735	0.222281089426082	0.216682626606973	0.215327084155894	0.228339987914206	0.227745243690616	0.228265234958321	0.22420451319743	0.219282225120003	0.208041403733833	0.220913537434343	0.228905148538422	0.225215767102827	0.218812207924335	0.233318955819689	0.233986244513262	0.232262367288163	0.225420745371562	0.225172760018338	0.224273053418304	0.224387330214324	0.231797178551636	0.230521796523143	0.228303455374455	0.225705380534153	0.237837929196003	0.226523117391491	0.233421064359599	0.236213118554018	0.244554709244086	0.241434100760901	0.245688363818493	0.247107937448006	0.247404081823849	0.253987357791231	0.259914416175077	0.263097744102646	0.259404342251015	0.25942238966024	0.25822774583313	0.247662552263689	0.236101228605636	0.237076945305949	0.230211273540154	0.224962153199947	0.217400560575864	0.202991087144036	0.196741287991804	0.196848974503366	0.199552470037531	0.191891415166102	0.186075099058876	0.188086148864373	0.185890832224584	0.19007227359901	0.192447178579306	0.199937265559456	0.209448082295749	0.230388449984314	0.232059051310032	0.239710640729722	0.235574625651827	0.251361825543537	0.252890193742437	0.254729552611155	0.260056840845534	0.25842364648811	0.258898706247478	0.254481814730141	0.249766287248403	0.243958943464516	0.243331741224672	0.237293736272538	0.232592755603184	0.225354624142448	0.224700969000259	0.231241938022081	0.228812642115089	0.224517150833083	0.236549162261348	0.235295391636952	0.227979687069591	0.21969859019284	0.220784337475995	0.221866512384979	0.230335057458686	0.230706681900834	0.227936341870085	0.218330547666989	0.220754902523608	0.218624112607247	0.205253191580921	0.206630766077177	0.205658876539481	0.205237699189561	0.206012259750036	0.204269959611351	0.201864244299613	0.195951031969324	0.190890064078263	0.181866833136172	0.192677252324155	0.187865765481984	0.190240443302945	0.188864817083733	0.19363418564245	0.195922887912359	0.190573012691327	0.185838834414374	0.176326035811779	0.173833326813059	0.184468340274194	0.190909867248151	0.180379545031	0.185320257142725	0.176304749274388	0.168614285870738	0.163910152149113	0.15622476294781	0.155952869935659	0.156333971234624	0.163489655071409	0.172993678427131	0.159523209052588	0.1512863662969	0.149648486670421	0.14500187663471	0.147478649645541	0.152329983263979	0.161284764683655	0.161868487905381	0.165154570375602	0.165799734864282	0.161832174317083	0.151559994566464	0.159955585170792	0.173841642224182	0.167499150167663	0.167008181755184	0.175965822754197	0.170399725890223	0.167227377584824	0.165698574164328	0.166113996688285	0.161598387958784	0.159885017652771	0.166874533740861	0.16424454174722	0.154926705225039	0.155715137856621	0.160908375455	0.150073634522442	0.16026565520557	0.16118478890204	0.165026303760844	0.159783916836195	0.162588070719544	0.161780953616308	0.161467438695689	0.163833664304077	0.168617937078319	0.170507638570029	0.166903398354382	0.170641756136295	0.171800262165741	0.163682490217461	0.159425462619768	0.159159693952715	0.1574959462502	0.151630228638039	0.145733059192012	0.137535547648306	0.13318464572253	0.132308267133616	0.134169580961278	0.128700620236101	0.119291547213984	0.123073846339578	0.118496412985667	0.12429077743343	0.127039455048272	0.132327977731384	0.134501658662763	0.151661500135651	0.154116256043053	0.157705944144639	0.158607025670511	0.166510180479842	0.162242782995108	0.158104976655862	0.157317748804691	0.152764957587428	0.151318323225879	0.150065954348996	0.151239560600573	0.141627910488619	0.137207890228711	0.133899922489672	0.125298230889318
0.173598789108128	0.172153482883607	0.167484380249706	0.181319818304034	0.182471115672502	0.171320330252866	0.1793911479979	0.1840341302347	0.18766404587611	0.195195933389761	0.199544588007018	0.201031191276016	0.204157850134816	0.201175300389296	0.196799670939733	0.18456069714827	0.171651048646997	0.173664813024164	0.171853796415771	0.162312240803978	0.154792750079692	0.149131460488737	0.152761619121625	0.151096256565909	0.154649160764956	0.158275961935637	0.165052936094422	0.162344394626214	0.167819995676085	0.175301426132521	0.169530728119148	0.172520430744027	0.180350582054706	0.184689395633145	0.186327096639707	0.190148821892595	0.195503309129521	0.196034746103531	0.189602677203048	0.193391608613154	0.194086257700032	0.188017897293021	0.194071136089566	0.195909621611974	0.182731098442227	0.176715239452677	0.16991529660222	0.172138455147369	0.161390276511032	0.165448005051271	0.177275711977331	0.178884468875147	0.184327018964277	0.189498313956367	0.191169381879943	0.195570425148033	0.196209775026959	0.199084842612857	0.203298611694155	0.203783078917637	0.203025428568872	0.198838919375464	0.191112949368773	0.190188147544062	0.182544552145068	0.18310161061073	0.175398844363099	0.172472807689034	0.179358924435935	0.172714985806963	0.170911391401626	0.164861897741494	0.162498962714238	0.157452017713724	0.155784195276679	0.15953054326456	0.158285480449841	0.153544807534186	0.157931805801731	0.156825996522628	0.157189662944508	0.162793001814152	0.171857955202102	0.172240317511546	0.172807319156238	0.176228792555189	0.177599957077797	0.170636675532673	0.173646934820722	0.175662650980731	0.174015604292183	0.174448186557626	0.173014087046686	0.164840569613849	0.147817282254487	0.152515907023779	0.151414588739911	0.148070174986471	0.148516325800101	0.145310892806398	0.143386463064717	0.136010651766741	0.131666495875402	0.124160422284954	0.126481168750098	0.132265075720648	0.141704689104873	0.136820317534851	0.142426763665904	0.143651984453288	0.137549490748749	0.143234910443401	0.143720887742383	0.145287424375362	0.14647062018618	0.151947862957879	0.148301704634837	0.149063595361519	0.14561788459806	0.142205631355022	0.140278845127262	0.142924451106655	0.148682247076032	0.13710530174625	0.130966932945123	0.130176825606684	0.1268228425732	0.123574736638789	0.130317707529272	0.126371633224207	0.118873679317878	0.127748163855813	0.13171802459624	0.130496344552719	0.131003585207309	0.136689557461247	0.135792448162221	0.136454855389367	0.133580029068193	0.130439102610025	0.12258689427785	0.120318258358923	0.124263809411579	0.121301204126486	0.111575595235199	0.103409674030617	0.103297153186643	0.106480877572167	0.106696535486088	0.108857266376676	0.110546282959014	0.115820936370316	0.112725060036189	0.113401401736625	0.116593522436058	0.10866044988708	0.113276557408395	0.120468310870396	0.120650842816191	0.116903358298893	0.121092680423434	0.125588533954845	0.130602212859272	0.125702140082758	0.131343408335349	0.130662232465831	0.125328866937311	0.132579365097026	0.132789526421872	0.125627798099369	0.123967182873183	0.124435473935965	0.129087317488356	0.118019986953863	0.113558843771092	0.113767434668871	0.114049952802764	0.115271394496162	0.118823003330196	0.1188589528935	0.120351541315191	0.121486978533132	0.119273923578575	0.119902116403098	0.1122703873195	0.116615744050956	0.118138245242424	0.120216115570452	0.115427451476759	0.115627029635467	0.119327492869858	0.111495504422181	0.109247179336537	0.112299657538956	0.10892826602979	0.103367928269775	0.099635142252591	0.094496346205071	0.0925657516249543	0.0906106356611927	0.0966798330387087	0.0942566808450601	0.0885160129100432	0.0937229779414462
0.134455804780125	0.137100597959702	0.135131413668177	0.135044317425874	0.134049421893886	0.132218637877119	0.13049575743978	0.128964757607109	0.129786468850348	0.129435246259065	0.128013516005387	0.131512956838146	0.136706340406306	0.136581965648605	0.138686228176733	0.138553522453138	0.133555316368846	0.133742931270053	0.132907595968878	0.135420028115145	0.140626614158181	0.151715893223428	0.164191143319767	0.156129792790639	0.153289392024813	0.153421320880756	0.150502361929607	0.145279821943923	0.146663331411273	0.143681239002252	0.143529899770495	0.145197321973922	0.145211553785646	0.136277780580697	0.130064879449468	0.131119279474232	0.129572287984695	0.131162700428081	0.124267924317937	0.128448739377071	0.125073197750709	0.127122911033924	0.134808874217711	0.137370828259613	0.130356298566748	0.124345097349974	0.117963522870756	0.117798849331897	0.118400324439832	0.114248144709754	0.117714107074911	0.112455167608746	0.11947865114701	0.118690324278077	0.112678184727763	0.103836378368217	0.116810272864129	0.120780982076413	0.124639950280178	0.126059448667862	0.128468036882919	0.131543088040389	0.13441058996746	0.135959037668315	0.129250886903917	0.129802444504128	0.125143116341784	0.132318557276629	0.122835762145584	0.122918207863906	0.127750461751079	0.127735290686859	0.126594165941118	0.122126454766965	0.117310643666171	0.121317039543348	0.132565962339665	0.127566958363194	0.124597920175827	0.118497029654868	0.116559938977362	0.118656775300315	0.109798878990753	0.109889438304069	0.106342546781525	0.106262548189282	0.116324697566797	0.110789778197162	0.108092974609696	0.111554292031826	0.115088888864387	0.116486348582529	0.114591843000125	0.115172238768934	0.118908323018989	0.114226736636303	0.120441234854509	0.122267760170376	0.115471791398111	0.118292335432107	0.113150085617659	0.118466255597042	0.123047887804725	0.124080521374155	0.128745928347596	0.136878095209939	0.139427065209994	0.144340383270395	0.131939876134624	0.130750759769384	0.126818384190319	0.123834470896058	0.123861255769628	0.116942923728619	0.109474341947382	0.107205736591219	0.105069456833071	0.0973094446540429	0.0949683904279804	0.0936247272766848	0.101809591613667	0.0989677587923382	0.0979791224272414	0.0953911703992056	0.0971660440984556	0.0994761207182413	0.0975190090878388	0.100441371580121	0.102647115760154	0.0981936259546262	0.0938173492367205	0.0924326180106605	0.0887632545989066	0.0886720688999728	0.089628506313769	0.0887914356073863	0.0917138236962842	0.0951365357773533	0.0984799477722452	0.099175839552816	0.092414101695703	0.0865842790438434	0.0875343168510083	0.0864984517742184	0.0892163583384811	0.0905627889269919	0.0970752163256915	0.106735249505302	0.100363599848642	0.0958568933114467	0.0954575592174896	0.0927265404347335	0.0930308372391594	0.0947488772397968	0.0926967780879576	0.0944244464639625	0.0931791967382144	0.0953375624070355	0.0906241977938461	0.0825136330400869	0.0851676529957858	0.0853676749100309	0.0841797174496279	0.0798579468161156	0.0843031488555835	0.0848832875370414	0.0861563921250054	0.0887805399616359	0.0924586565614236	0.0889929820792212	0.0857207239926675	0.0832663949242972	0.0807169556032388	0.0811358453369525	0.0803412194575704	0.0804583993385648	0.0776029075875588	0.0825105914129048	0.0810858583168205	0.0774996628509561	0.070318341748735	0.0746262712405441	0.0755596227970332	0.0779967092240057	0.0767673252446231	0.0771348112337173	0.0796374589159141	0.0825755290523292	0.0813243241001487	0.0755746862339689	0.0779184036683725	0.0755107869540021	0.0819430825341908	0.079985915183317	0.0817556498540844	0.0843178226670884	0.0861653032464454	0.0859200797844874	0.0831426796999571	0.0801977201299252	0.0827529705398422	0.0911677636543838	0.0869584797763111	0.0850745472182871
0.124337905711583	0.119336198987174	0.121883952328381	0.115556185873768	0.113256891864698	0.102985959046979	0.102022837719678	0.110331765666024	0.107702674600438	0.111971330357517	0.110784828044612	0.119359537569962	0.119713704318761	0.12294925340122	0.118467603871148	0.122791184144876	0.122490690808078	0.126109851891004	0.123338245708518	0.116619810504885	0.123025642295326	0.123151524375552	0.124765821329275	0.120627422614085	0.118750425188403	0.116033303277946	0.111884710954587	0.103203739010781	0.107043286363948	0.106575253468087	0.110773367201637	0.109729732983476	0.107392027254743	0.115070018063324	0.111504578054574	0.107643115142572	0.111597885349796	0.111344206825023	0.118453962273464	0.12443481048431	0.118934595427577	0.116135012448379	0.118185554775472	0.116386590495101	0.114694475788349	0.104175633536173	0.105206323575695	0.107100126742332	0.0995927129157033	0.102999234264342	0.101006172630842	0.0993463378626077	0.1006670915307	0.10113864526948	0.0982077828920815	0.102469763038651	0.098341202876479	0.0991491330041122	0.100048777085001	0.111706660652857	0.114480108663768	0.116845342818662	0.11755337220253	0.124391434873029	0.121710375139486	0.12570100064346	0.12228916239735	0.114647575071727	0.121023205115891	0.122147073318854	0.115694185480435	0.108749739375244	0.105682054832879	0.0967747938773154	0.0931664390906516	0.0927634106041033	0.0880508376312548	0.0856150127612448	0.0932504549885533	0.0946019801792786	0.0869453623065477	0.0842333867890953	0.0892157657983763	0.0830313288962473	0.0833347367511104	0.0856597507248175	0.0856794952293798	0.0806837112215729	0.0914285928644833	0.0907077900461605	0.0854026501861379	0.0896475046423569	0.0902004752327378	0.0901429804082918	0.0893139837270158	0.0955050116080417	0.100382329176543	0.10063502738046	0.104244556686767	0.104857453991316	0.100012337100683	0.103414509245956	0.10539565492998	0.108860854627697	0.110598752811505	0.115235491661212	0.113946000302164	0.10851811905745	0.105885598611745	0.104011757373473	0.0939250770429928	0.0868516551833023	0.0867889171559444	0.0845957587249558	0.0831080201273133	0.0809621607464208	0.0880109716836414	0.0840941168633525	0.0864805123698229	0.0868077194134969	0.0864214546056642	0.0849169841162845	0.0869772580112784	0.0927945488490705	0.0903923960158558	0.0901511388392495	0.0866777613807046	0.0855479646680329	0.0811942869098997	0.0793933075036561	0.0731923280698996	0.0734175026092962	0.0772828592708339	0.0760934923828512	0.0797555023768997	0.0770655095942036	0.0845563917176497	0.085216551159668	0.0911658180455578	0.0888121771002303	0.0902110674507152	0.0929854398030684	0.0957103147665511	0.0943992567095186	0.0921909700840203	0.0949484468177091	0.0956072781973887	0.0951271317743435	0.091121959234293	0.0901273299185373	0.0850989476107986	0.0826822179467376	0.0762189716762143	0.076018618822584	0.0731100130066051	0.0730111084964001	0.071792475397862	0.0720786795671402	0.0776278288498524	0.075344798974294	0.0700274610943646	0.0696351450336369	0.0693383739064715	0.0730771928183099	0.0777284982750078	0.0753779221304951	0.0758804552597146	0.0810972148038119	0.0776011329651087	0.0773990313995366	0.0712936210441304	0.0768101535697616	0.0802201716365144	0.0781202428630843	0.0794840542476984	0.0766361601466802	0.0739018391133409	0.0725960281307149	0.0714436530401512	0.0662468883563366	0.0693184059668728	0.0642789389077316	0.0611744281534371	0.0594722692187999	0.063709480544515	0.0640874610331108	0.0659493047422611	0.0714635957717027	0.0796336127971048	0.0779100534580154	0.0833823518421001	0.0832514467678725	0.0784588633094574	0.0825662584012149	0.0835245042663496	0.0796734194434566	0.0752758885798701	0.0735035906900396	0.0668490643588211	0.0627967291068385	0.0592827969579756	0.0563982844182685	0.050707518718857	0.0503122860587487
0.0796626293302667	0.0807650107972086	0.0834182175276798	0.0794842032174489	0.0739627538485827	0.0743305074387301	0.0700017279952002	0.0710892778758619	0.0717137233536941	0.0748970074670144	0.0777124836956156	0.0782346504071204	0.0841638861145639	0.0844055703606528	0.0879390700132224	0.0913402183558616	0.0942622136886084	0.0924042638713087	0.0935033854908056	0.098238350066226	0.0960533402453868	0.0968815265440935	0.0931031978631124	0.0923399715634857	0.0918225500197186	0.0855692190107575	0.0807786784470272	0.0769285559583227	0.0772160922624087	0.0784745958629576	0.0730709826561542	0.0724646066789745	0.0699625239532053	0.0670640121071846	0.068570958641763	0.0687098520993427	0.0672425181905988	0.0695403424312669	0.0694430664044024	0.0684849509454419	0.0647168177588956	0.066504863719261	0.0702232005565703	0.0657953416835994	0.0683760821659832	0.0705466579179824	0.0677520339107792	0.0671480042907352	0.0639367933405821	0.0662539833510251	0.0702352763185353	0.0708431105147841	0.0761262024400876	0.0792244445732612	0.0745159219938132	0.0783709091530995	0.0794661398222857	0.0793048422215662	0.0768283549631961	0.0763279113417639	0.0827867758893625	0.0813477951334981	0.0816868894717375	0.0845815701941532	0.0805422796206466	0.0768413312075375	0.0886439411633938	0.0849222339514399	0.0833804760068484	0.0837736548255719	0.0880935078624244	0.0920095108414835	0.0897335227934289	0.0911631249860793	0.093049953755851	0.0908017697649133	0.0926085964504266	0.0931730253443545	0.0845799449783123	0.0834513636168635	0.0826661259713947	0.0845325315705846	0.0829173621143323	0.0764021807233538	0.0764120636244956	0.0708472540142894	0.0657162432340619	0.0685704340349833	0.0702770047080979	0.0713869534991965	0.0716775160300443	0.0713152408057803	0.0720043249476048	0.0694167320511494	0.0655050984573597	0.066162017955314	0.0627282961746824	0.0649274841424462	0.0661117945572211	0.0608604872081997	0.0555307725825451	0.0538702451891417	0.0507356032828817	0.0567889274628657	0.0610667945557913	0.0616736991424492	0.0648046269539181	0.0648935719500398	0.0671882474949202	0.0720070246906032	0.0687444307859388	0.0713835270052884	0.0726818621297602	0.0702733644942278	0.0707355400612238	0.0625133956716234	0.0585271190904614	0.0579191704254319	0.0554155031860078	0.0597768520140841	0.054697109087077	0.051435861451665	0.0491805042112519	0.0495386873928307	0.0492738494662975	0.0488556671462701	0.0514982696754601	0.0559539329547183	0.0551317294018827	0.0504559508740602	0.0513683197672953	0.0467193064290948	0.0485634753815551	0.0481795576923484	0.0526440907994383	0.0529602063597858	0.0553459843481853	0.0579210805885074	0.0585496260606264	0.0617532115043641	0.0640267484087895	0.0682203027399369	0.0680576475834842	0.0686548910919893	0.074509810649377	0.0720415552398604	0.0693999540293467	0.0678136310715077	0.0632500855736302	0.0638456892803809	0.0586947974188258	0.0538725701475368	0.0504240938519083	0.0501732084140123	0.0503828467869122	0.0479318817026067	0.0463432177911043	0.0457667781869577	0.0465754039937953	0.0453417985815455	0.0458772656993872	0.0433087186967705	0.0464130437051496	0.0453651664515212	0.0460529529087602	0.0436569929367436	0.0446292480805097	0.0471881663698594	0.0411255412018177	0.0432396666044195	0.0450180433272257	0.044700443217277	0.0471431798249236	0.0472742961852469	0.0474390688158486	0.0514524673201335	0.0520603015163823	0.0548886836760898	0.0570497605270802	0.0534250653495362	0.0552550535869631	0.055904695978045	0.0541177246737288	0.053810057624975	0.0503940861441996	0.0550685979924867	0.0558576257625192	0.0560269475163392	0.0537681811857807	0.0520885061834651	0.0506449881359702	0.0588282180216322	0.0575299397280681	0.0550763194600048	0.0554879045571052	0.0556755760758961	0.0618787307356156	0.0584151617321115	0.0592935584587574	0.0590230810310849	0.0608445166912175	0.0604803039240036	0.0589299441949139	0.0516169666036221
0.0821702348362425	0.079509587813487	0.0829313184755182	0.0784949808755454	0.0785850132323712	0.0710698433239435	0.0673629360964199	0.065308777440259	0.0643577179040313	0.0620439915114334	0.0613910920767771	0.0630610025017609	0.060857128801926	0.0673143728255626	0.0668611468622539	0.0680248851182121	0.0629642472742489	0.0631263467666984	0.0611578043274107	0.0639637633765856	0.0656684461620094	0.0684569673042619	0.0684014827060699	0.0691852857471357	0.0698622941356531	0.0699371137415364	0.067769115241913	0.0684619290228476	0.0712655955457349	0.070444311560427	0.0688728715877573	0.0668176058066373	0.0661460738160024	0.0592865703772879	0.0631088250114842	0.0654812046390806	0.0653115819969068	0.0611333288920007	0.0639320615485193	0.0610183555939707	0.0587743425679852	0.0613123021243838	0.0610359386173534	0.0623860433253598	0.0605363640278085	0.0653916930427124	0.0606304485004636	0.0574357238854805	0.0560587088067687	0.0531275368645262	0.0525568280626522	0.053815715070433	0.0570326219208306	0.0584521348767089	0.0647760877028669	0.0667110750390798	0.0682937115296562	0.0709160613690055	0.0734327516598399	0.0730149737076944	0.0732238762846026	0.077170863505041	0.073255464806224	0.0713681717858031	0.0708641163956365	0.0703845447945463	0.0624092312202362	0.0606824167095711	0.0583007475866882	0.0581613532317975	0.057966524271076	0.0550509848931966	0.0591961146228771	0.0595653759732786	0.0610061994483312	0.0624205180644847	0.0590352595489601	0.0634238730704291	0.067112338420073	0.0677141468228322	0.069723454285331	0.0686353656966341	0.0666621313944514	0.0673042603997459	0.0643399394020698	0.0616206720159136	0.0621665473152305	0.0611039087851236	0.0585790288207536	0.0534644097243823	0.050712107402912	0.052264934250018	0.0508964027636817	0.0473504962233894	0.0505751188526546	0.0493527096518759	0.0481494135920018	0.0490359389555004	0.0462109048391037	0.0476358674780906	0.0541328817676539	0.0531253853150681	0.0538870378495502	0.0506964516688387	0.0509684537415079	0.0500167178437615	0.0492852001698021	0.0494286948575506	0.0488516415829428	0.0483397170908798	0.0519962980955049	0.0494619498997432	0.0481332546698475	0.0487335438633435	0.0499065731064793	0.0488612351870186	0.0509595186925798	0.0523885295759893	0.0527222917902146	0.0594195814708001	0.058181331348852	0.0587686465531409	0.0595511099224582	0.0603359339186774	0.0554186376756322	0.0562108977501765	0.0526303140563591	0.0527197803106943	0.0513679501919874	0.0500652029366623	0.0439981038199685	0.0394101395707933	0.0376732564257178	0.0374319419458867	0.0358279383963896	0.0335810694218475	0.0388418951267791	0.0377407521763	0.0430835042423306	0.0450722813921421	0.045032317229272	0.0431873344907428	0.0449504510674098	0.0420472645171303	0.0443222936733439	0.0452174297101467	0.0479104624307089	0.0471068571078169	0.0455794774874898	0.0453801005083604	0.0455717698684598	0.0442940326634123	0.0469218139808755	0.0496138252290972	0.0503519630700733	0.0507108217881826	0.0486360529587133	0.0476361444505859	0.0431518198773217	0.0479643007888954	0.0497078654765146	0.0503562347192252	0.0453971529719748	0.0465005909676464	0.0417061743063818	0.0388708960437462	0.0414088556001447	0.0428904437638773	0.0441459819337108	0.0437144805201885	0.0465787712478451	0.0430886761468499	0.0408989815967083	0.0368031910088003	0.0365704265833538	0.0354445717315236	0.0362695958166212	0.0391500016229252	0.0361210039254269	0.0373827573050132	0.037752486783852	0.0378085238033486	0.0379229166862633	0.0383447735345945	0.0382107613302155	0.0402162416078223	0.0403516485873528	0.0386866905993391	0.0370500751152017	0.0358606077841925	0.03747386671126	0.0337799239411774	0.0320967284663114	0.0309614041965927	0.0330290582385574	0.0343154778508942	0.0312710099164276	0.0342990004820703	0.0353844935846612	0.0359350557651379	0.0361051597930082	0.0358745068919725	0.0391280958743975	0.0420852961063412
0.0659464061932151	0.063477430042658	0.0591021355663211	0.0617956636156629	0.0591706127648791	0.0604342718276585	0.0608718104752176	0.0554942416573776	0.0539415351408262	0.0565257266775402	0.055836224163151	0.0541514292220192	0.0551153420023361	0.0532192452951163	0.0557903390436209	0.0556912333694142	0.0564164940274555	0.0554692706641932	0.0574952271779429	0.0568059177230991	0.0567891052461669	0.0538303378441048	0.0531972837828657	0.0569949731517691	0.0559172058088788	0.0580673642699193	0.0580976517558283	0.0584789219889115	0.0597095746632829	0.0615300335202269	0.0590034063047986	0.0611936765558499	0.060189088762386	0.0608279726486676	0.0639787746623119	0.0607592526452187	0.0629715449722338	0.0619405084114358	0.0602261658735107	0.0574833528940101	0.0549590444130935	0.0518539106411993	0.0535460867127549	0.0565946937153588	0.057844318790425	0.0592497675491253	0.0550705920546437	0.0535224973847108	0.0530936995790858	0.0522122078916613	0.0509086608325897	0.0539915789063035	0.0542855226215279	0.0561561853769924	0.05163718098542	0.0477716518706856	0.0488304511180616	0.0477561566621333	0.0478784430318599	0.0485275332708378	0.0493227374017183	0.0482241986964611	0.0488674589423918	0.0478603275386865	0.0526091696434282	0.0509298083319649	0.0521542595100371	0.0512524569186337	0.0497920746784418	0.0495750052026297	0.0524149036350688	0.0538580456797712	0.0504449971124922	0.0502115011797084	0.0509346924814742	0.0500008017910713	0.0431856578475415	0.0412340575208467	0.0445956980635516	0.0437601372073371	0.0420702693049492	0.0456937269924	0.0434654332214377	0.0410266574961497	0.0454236952245506	0.0475237188977297	0.0495766146398974	0.0500755436833995	0.0504711279935141	0.0520786629072159	0.0539648455986128	0.0543877245145147	0.0553181318650038	0.0564062548545441	0.0560454513077505	0.0571600905576846	0.0530672746722686	0.0577762825941609	0.0556479424571009	0.0552317787354921	0.0570092991922848	0.0616240713442559	0.0566537513502317	0.0581814326547019	0.0560551622623564	0.0494118492429914	0.0495937562285168	0.0527707194686601	0.0497014990637676	0.0437954084681995	0.0458710405191451	0.0479311085638244	0.0453217202952184	0.0389280963619531	0.0419969466943217	0.0450399416736934	0.0457072813478759	0.0486746231687912	0.0487545894561037	0.0468465698278747	0.0508453841828193	0.0524349745190876	0.0493361504368363	0.0468196012398131	0.0473608088580126	0.049175339511309	0.0471186424223642	0.042111504364537	0.043790001548412	0.0430935260376916	0.0441420713453697	0.0439285346996337	0.0399774847947937	0.0384851182104302	0.0403136691255206	0.0413194612719784	0.0421911245892161	0.0428607223380719	0.0416723015512071	0.0429388028438424	0.0408029634849806	0.0389076428850302	0.0379698163236465	0.037736684093488	0.0391938389072644	0.0400672877249081	0.0372014051397666	0.0345656317729154	0.0369204893831357	0.0363009278025486	0.0355604597945315	0.0383080119601445	0.0409341904795937	0.0433116683470201	0.045530219044538	0.0445135462664301	0.0435954212331274	0.0405334272095079	0.0401996180088689	0.0415819706955288	0.0398052804371187	0.0411569868460437	0.0408302503842881	0.0391159078463629	0.0364243105089947	0.0362075095655623	0.0322666505163269	0.033673415942878	0.0371277707721039	0.0386051082073324	0.040914740739956	0.0386055314245432	0.0359374817726429	0.0353246306875245	0.0346903388478904	0.0333867917888189	0.0346786817389171	0.0341388739815939	0.0341086876648368	0.0326903435610834	0.0305451739697584	0.0334336670871277	0.0325808023017243	0.0326938827090303	0.0339185369691583	0.0366783169686841	0.0375189047856518	0.0373284135590348	0.0364465145219206	0.0393690334947177	0.0403119824963899	0.040025152431215	0.0401056377741342	0.0364807764545942	0.0359927137836132	0.0371367585105933	0.038503604498181	0.0350905559309019	0.0337732325962142	0.0343795741437639	0.0346150529508365	0.030459983611799	0.0278157910577756	0.0304368461989024
0.0478274127380325	0.0503163009917646	0.0454017618242478	0.0455823789273205	0.0474882783620674	0.0458665940557729	0.0460629119555207	0.0470204109628443	0.0418588659428333	0.0433196769312876	0.0404277748981995	0.0374841768233973	0.0353070593823274	0.031741088415098	0.0329449705268809	0.0319835247814638	0.0327360879828026	0.0329577919883349	0.035755855545109	0.0383171177711861	0.0407961358586046	0.038128448966402	0.0389896808105915	0.0403793045159056	0.0434002997061866	0.0470327515353899	0.0447762600809408	0.048789814000617	0.0491836494340535	0.0493332440238527	0.0468188475590181	0.0453768264463904	0.0437622119241106	0.0434333111923739	0.0407602622952764	0.0392475264709927	0.037721541220774	0.0374639055684385	0.0391993424917676	0.0365018337961619	0.0340627280066987	0.0324696949443168	0.0319907321044861	0.030342377077546	0.0321161733120093	0.0325324076918271	0.0351031711386696	0.0351348323865326	0.0353879158261159	0.0316764065799343	0.0284907489208765	0.0300092711377782	0.0283440360690052	0.0324317296030604	0.0359549540395606	0.0371822845604378	0.0366646680007318	0.0388755553216057	0.0387674868615716	0.0396848462128073	0.0404700014849628	0.0411946156151138	0.0439622201696755	0.0410702291691758	0.0405076918429979	0.0378086720121084	0.0350197802479666	0.0311099978597426	0.0304763203591703	0.0282508707611316	0.0281704099892899	0.0297396551138752	0.02809666775665	0.0303137065929392	0.0315859364631282	0.0341084999082318	0.0377269905751657	0.0371765256691281	0.0410622431808363	0.0464032030098502	0.049079492949654	0.0506975707470544	0.0498035809297462	0.0487690941539471	0.0511188506947738	0.0502354376767578	0.0487648027973751	0.0460576539479058	0.0470139991206068	0.046477847297837	0.0414440770710853	0.0410442232104954	0.037864466690057	0.0405349978790756	0.0380961522546533	0.0396084867905918	0.0382103680581401	0.0352580367049804	0.0334602373688991	0.032584871792146	0.0324670363607288	0.0324106240420064	0.0328047361795036	0.0312232784429091	0.0295679366241556	0.0235822688825496	0.0244160203550973	0.0211464670987612	0.0189528503257161	0.0189528503257161	0.019551953712083	0.0215098998918479	0.0199680765790394	0.0225608562211371	0.0227925406011591	0.0261094631729656	0.0279147815390356	0.0279416767478274	0.0314527028155624	0.0324923620807908	0.0336592054863437	0.0393580324934666	0.0406432605152653	0.0409619694477641	0.0422484855069387	0.0389607452309815	0.0406688048423693	0.037477352051451	0.0356240689841126	0.0356518606998641	0.0328100029330772	0.0321994645690692	0.0321128350138727	0.0263306029759296	0.0253439499643246	0.0251669573270297	0.0216965292901462	0.0208132142929544	0.0191118993699732	0.0174486684864781	0.017789857793772	0.0212013573564504	0.0223442289603537	0.0253678602104999	0.0261251923999486	0.0281049425233318	0.0271998719663288	0.0272542475467624	0.028220099987394	0.0307477060352471	0.0328789326230049	0.0327582890461336	0.0335920405186812	0.0315231809653093	0.0318030536257076	0.0289796844366808	0.0294034339888789	0.0278937435830998	0.0282496905162229	0.0254328966561174	0.0240092188702982	0.0222917750976476	0.0217395051789465	0.0227310791622318	0.0235258566236166	0.0235494458209617	0.0226876778762801	0.0221166883967027	0.0221582972244403	0.0235066360378871	0.0239228704177048	0.0262991792744306	0.0271923837105929	0.028130314815036	0.0262146650766655	0.0245041354753517	0.0244726372013811	0.022807402132608	0.0230707255349957	0.0265273726781696	0.0256857833321626	0.0247984570933021	0.0248405242045596	0.0241460816922979	0.02430780042191	0.0226621933971119	0.0224045195929403	0.0232343760736808	0.0216035110515367	0.0210409737253589	0.0203848441667758	0.0177545563357071	0.0159136938143673	0.0149826215221769	0.0132836203031109	0.0134236410878694	0.0147979256073145	0.0148544354293427	0.0156469197895689	0.016058163873704	0.0183684665681009	0.0200816650749922	0.0213126800283156	0.0248630211630056
0.0296219002658239	0.0282579231438331	0.0275992667840364	0.0291360955491937	0.0295879958582888	0.0313401130362813	0.0322732347890124	0.030474331311495	0.0303109288929068	0.0334862695674412	0.0343759769518895	0.0331748303889869	0.0348288291215306	0.0362061038954593	0.0392908079327157	0.039850539165267	0.0375205616695176	0.0387799616818641	0.0395946758516393	0.0392589479457899	0.041627659034474	0.0385403566075103	0.0403502955386235	0.0394024629902802	0.0389659462086371	0.0371750379162186	0.03521714059317	0.036617451432952	0.0406151678005791	0.0390650341056732	0.0375061600482892	0.0385560241155627	0.0377991789869971	0.0370811278658675	0.0353477783567039	0.034875582322702	0.034388077241485	0.0362618176903603	0.0351684689756263	0.0332102742768255	0.0309877863184544	0.0317722749636353	0.0287236458660453	0.0279485984829452	0.0276396881217563	0.0267027681072137	0.0291968730737364	0.0300119488979555	0.0286916429863425	0.0287709448485147	0.0300874956577387	0.0312186351886153	0.0316173327059596	0.0280020779307434	0.029725164307342	0.0283234326766318	0.0277436504504817	0.0292849884556391	0.0272892612656491	0.027315842729754	0.0265682764557204	0.0254836102958931	0.0251219069447715	0.0237417585904761	0.0221122236246931	0.0230321602957549	0.0233528927249406	0.0234773284074073	0.0221867806477697	0.0216218891357023	0.0222345321614613	0.0200019501112979	0.0227447614040138	0.0252892361781957	0.0230998656578366	0.0230863987654277	0.0239334228922091	0.0260734233637121	0.0257091869225291	0.0278752335138409	0.0292760490458625	0.0309721068614491	0.0307300880533106	0.0307830108835139	0.0276646538805536	0.0243083127771797	0.0242499192944172	0.0243067238294624	0.0252209368009116	0.0237260162485947	0.0252847338114853	0.0226809194648865	0.0228179676946451	0.0256953537582811	0.0249962358853184	0.0272637760259429	0.0281344251080571	0.027825452383865	0.027825452383865	0.0283879197260422	0.0253266510453708	0.0269884778306353	0.0264608806075077	0.0263073929303402	0.0265334562684799	0.0213751075545003	0.0207945489376301	0.0207494359921272	0.0216790957342514	0.0243436186889751	0.0251403526477947	0.0245282586112026	0.0270745379521528	0.0256637339835107	0.0240018965067955	0.0259200114121375	0.0230722569103138	0.0231469953618738	0.0218901994770267	0.021693688041825	0.0230773543366608	0.0216461470189035	0.0223885542324338	0.0218329319217158	0.0221154380517413	0.0211331501174187	0.0206468222159476	0.0187871007933681	0.0201154637316551	0.0204666339379763	0.0224845046778729	0.0225838749580564	0.0216465146688382	0.02148311225025	0.0215456916040198	0.0216797583668445	0.0219806838853266	0.0237332515229415	0.0250145453193856	0.0285926384990698	0.0291323475697523	0.0282367864026139	0.0294002054374758	0.0291474686262709	0.0263564628355977	0.0280837973390854	0.0271586550061225	0.0289434059165149	0.0275673830706665	0.0260648913624078	0.0250548117123336	0.02380459030964	0.0252442995969704	0.0278638735312324	0.0256401299881912	0.0252976107194751	0.0288027526715725	0.0271556462484309	0.0263731654885985	0.0254206446217792	0.0258387098823533	0.0277426913371577	0.0285326043841291	0.0267544080045354	0.0253775018761184	0.0245331563511122	0.0254287175182507	0.0230649360855204	0.0202910592511233	0.0206235254751308	0.0207016363260549	0.0207977288403104	0.0209500488598266	0.0187959914756659	0.0192034801181184	0.0185407243134155	0.0181849581049683	0.0185836556223126	0.0163117668156186	0.0180348531922172	0.018011263994872	0.0168673045728181	0.0177237949131158	0.0181260801753929	0.0182885874821196	0.0183747726806337	0.0175682737787901	0.0177437054493569	0.0168998616076215	0.014514686020215	0.014514686020215	0.0135228647613166	0.0133777261671394	0.0124577894960777	0.0116874843542941	0.0105993620666469	0.00889360997856481	0.00999137753225503	0.0121795741975291	0.0121172229342682	0.0121928140803238	0.0123332707843663	0.014066983676875	0.0137977895562455
0.0213936200779002	0.0215526162547759	0.0211371993290957	0.0188105735535503	0.0195540439042082	0.0186270318747895	0.0187376099745577	0.0212518738399661	0.0244103525002281	0.0219338020871867	0.0211191387400428	0.0232210757483196	0.0212917621950586	0.0215214558824501	0.0207219471583889	0.0212253829041165	0.0197010839111142	0.0182141781717904	0.0180835779101535	0.0175269302546844	0.0127382977963897	0.0146142848420729	0.0148640185016927	0.015531354603411	0.0174028052572777	0.0214181358924047	0.0198261580804445	0.019656385496025	0.0205466467906009	0.0225461132450137	0.0219454483889504	0.0223659766874628	0.0238750945838666	0.0226493359188907	0.0217815635072459	0.0205145883783249	0.020076351686106	0.0158313273635875	0.0158313273635875	0.0194326825483129	0.0193761727262847	0.0181323468934955	0.0210977126640459	0.0211015333787857	0.0214896771695211	0.0237133375705485	0.0227565032899202	0.0207533465724257	0.0211583342478516	0.022423981722583	0.0227794371886033	0.0214114543782764	0.0234939667205497	0.0249856706491653	0.0236439693981339	0.0238054137077057	0.0225709078252694	0.0196071305110309	0.0199826762212754	0.0209752950945541	0.0184058283397801	0.0193765038634875	0.0202967044759847	0.0209887225026828	0.0205485819910531	0.0189860851056737	0.0196577814126099	0.0187191562157681	0.0212210880377542	0.0219418286652859	0.0216225568502874	0.0223035729362509	0.0223035729362509	0.0191769886432362	0.0179013325647187	0.0154605895900767	0.0172904622190999	0.0181932994603404	0.0181500865327593	0.0192647748269426	0.0168077631206085	0.0161304935727401	0.0169002604417349	0.0157839940409413	0.0157839940409413	0.016468841705801	0.0178969162962047	0.0173391161477608	0.0142851870967186	0.0149687546156799	0.0127166067168057	0.012418388264217	0.0132252445279729	0.0144650514020191	0.0157994995624344	0.0169006040327335	0.0193570099677632	0.0207849209190113	0.0202471076231836	0.0220738135554738	0.0216025753166459	0.020934297843839	0.0238024400373181	0.0225594226670896	0.0234676667037846	0.0261969318613015	0.0259429872582988	0.0245141588196016	0.0241130322744896	0.0220002736583818	0.0246325340236075	0.0220981521709621	0.0224611494251794	0.0224727545878168	0.0203358775120379	0.0204231167735494	0.020774131809325	0.0169010407552466	0.0154007066995399	0.015458856391294	0.0134035770013763	0.015033730799409	0.0143394772227429	0.0149401420788061	0.0137963161822445	0.0133016910493198	0.0125704259316196	0.0127764997277804	0.0100027084711987	0.0100834230171537	0.0106197275297136	0.0107303056294818	0.0122684270109379	0.0144118748057332	0.0123148718402979	0.0131486233128456	0.0153994641288104	0.0150107742645432	0.0161307292465106	0.0162511571935111	0.017201758420275	0.0163402152319757	0.0148533094926519	0.0147227092310149	0.0145609154891145	0.0107873138962864	0.0110476052204397	0.0110315853181553	0.0107909607787339	0.0118555551688447	0.0143016666953175	0.0127096888833572	0.0125399162989377	0.0134301775935136	0.0144790428211626	0.0138783779650993	0.0139295936072316	0.0154387115036355	0.0152279837041263	0.0153108125192453	0.014951798031464	0.0148270284605732	0.0112609619521331	0.0112609619521331	0.0133477849527477	0.0124575236581718	0.0114086584305228	0.0128554250636658	0.0130029907414136	0.0128643045700678	0.0129450191160227	0.0119881848353944	0.0106698757827597	0.0109675877445501	0.012482119928661	0.012482119928661	0.0103701089073257	0.0124795164583909	0.0139200047448742	0.0131146146969276	0.013221372081956	0.0125136961616009	0.0122935295584981	0.0126690752687426	0.0129989383373183	0.0110301364386075	0.012000811962315	0.0127320770800152	0.0140155199026502	0.013601407012432	0.0121609187259487	0.0131072270468525	0.0114253607023884	0.0139272925243745	0.0138672045095619	0.0129472678385001	0.0142910397291666	0.0142910397291666	0.0118058320213483	0.0110745669036481	0.00954531890656492	0.00950830139283686	0.00950830139283686	0.00792061648673668
0.0196707425575989	0.0198394692056727	0.0188955783495107	0.0207720417566802	0.0207970799900142	0.021486731003509	0.0216575526783844	0.0228461050807469	0.0206076494577934	0.0191302182689483	0.0187196615022024	0.0187952418372016	0.0187423190069982	0.0160884697878187	0.0159693091018916	0.0141838997340591	0.0145743746078295	0.0130778673305788	0.0142812524507381	0.0134263632096837	0.0132713874441234	0.0154164245953137	0.0153491141702546	0.0151395733287477	0.016442748246314	0.0176053253870816	0.0158878179973208	0.0144580458790836	0.0141354175888999	0.0154110736674174	0.014062549953081	0.0132817213107367	0.0148294128290308	0.014301139412011	0.0145725216572461	0.0153574273108798	0.0150894631578395	0.0168262637290665	0.0174053418959333	0.0198874718793055	0.0192278122351665	0.0193446797418638	0.0187821424156859	0.0199223715840287	0.0205881753896661	0.0196341674601985	0.0192741087845617	0.0215933227264293	0.0217938371051548	0.0196501000147839	0.0215450137108552	0.0190628837274831	0.0182820550851387	0.0168895314999239	0.0168080642656048	0.0164234757188856	0.0143649561605144	0.0137022003558114	0.0141317881353393	0.0109573953464507	0.0119955819347789	0.0127912073959824	0.00963236786818447	0.0123719179317302	0.013322519158494	0.0140781597801176	0.0134968712097338	0.01419566907859	0.0156133806845255	0.017801730446689	0.0172773713211867	0.0165748974217582	0.0141829128525372	0.0132944025744131	0.0152759007446797	0.0135513815466007	0.0152808219227678	0.0157647783529996	0.0185463419317441	0.0214287375946673	0.0226057173297814	0.0219823841578659	0.0207688147274219	0.021988978637017	0.0222748153842521	0.0251234376041298	0.02553537241931	0.0262666375370102	0.0265433324056331	0.0253037353537777	0.0237079393210469	0.0193711051676439	0.0169407098760325	0.0153756932857846	0.0159569818561684	0.0142434288041456	0.0137723096158473	0.0133937434976531	0.0135323707630624	0.0139573907877258	0.0126681572612674	0.0132688221173307	0.013276390686088	0.0142269919128518	0.0141408067143377	0.0147033440405156	0.0156626791591256	0.0168175205605169	0.0171208758392215	0.0161042859890875	0.0141728905942946	0.0133071092692559	0.0121839972849778	0.0115833324289146	0.0120942902429049	0.0139463398081477	0.0135313697434384	0.0136536800821202	0.0121130563931264	0.0121578250419178	0.0118241618806097	0.0110120722142566	0.0109382373202746	0.0108448312314048	0.0103004402705875	0.0103004402705875	0.00987861692553099	0.00959748187407196	0.0112709373491254	0.0113173548019659	0.0121511062745135	0.0116591721446859	0.0128477245470485	0.0115435921571491	0.0110167621950678	0.011268961233025	0.0127446383097754	0.0135254669521198	0.012242996368415	0.0113925705647876	0.010730105800133	0.0117619572590998	0.0109282057865521	0.0122845112642389	0.0114296220231845	0.0114296220231845	0.0132417664382476	0.0125330794279921	0.0117422500161014	0.0130454249336677	0.0136267135040515	0.0119556235671312	0.010525851448894	0.0102032231587103	0.0114788792372278	0.0106401909700668	0.00985936232772245	0.0114808887399986	0.0107411170982887	0.0116538759287203	0.0109690282638605	0.0107010641108202	0.0125093178052556	0.0137732436369822	0.0152483716947263	0.013807883408243	0.0139247509149403	0.0133622135887624	0.0145024427571052	0.0148335333365245	0.0144239163678742	0.0134631928361742	0.0158646467682083	0.0148294360036823	0.0124398937388632	0.0136499597700748	0.0121748317123307	0.0121748317123307	0.0107823081271159	0.0107008408927967	0.0103162523460775	0.00836363535438203	0.00770087954967906	0.00873113218527021	0.0063296782532361	0.00682306739566389	0.00777366862242774	0.00529967675948954	0.00711929015197349	0.00711929015197349	0.00787493077359705	0.00729364220321327	0.00653800158158971	0.00793052516680449	0.00871135380914884	0.00818699468364657	0.00818699468364657	0.00691277689887442	0.00596217567211058	0.00682371886040986	0.00601913633339264	0.00818934248914814	0.00867329891937999	0.00997743130927937
0.0119216650902667	0.011087913617719	0.0123352986087566	0.0111406154967215	0.0119214441390659	0.0145100844029937	0.0156762037161316	0.0163389595208346	0.0155275374852772	0.0139837907009463	0.0136845410478165	0.0129311840699596	0.0116622568091329	0.0135324527397364	0.0149604154743067	0.0158506767688826	0.0172667895514426	0.0146781492875147	0.0121278344086659	0.0142319139523048	0.0139958096972745	0.0146371862824709	0.0133316515996792	0.0152713223342876	0.0172501296237158	0.0166882744695306	0.0175044680196015	0.0182826061770807	0.0179622388059424	0.0187690950696982	0.017546429914118	0.016049807812309	0.0175621143565945	0.0176763783930216	0.0187800074657197	0.0183632845345882	0.017697030933244	0.0179072892942332	0.0156196619299287	0.0139512624778736	0.0132630698338307	0.0124562135700749	0.0137223498053184	0.0142152531354525	0.0129604300657038	0.0144749622498147	0.0145286199918163	0.0123429163836364	0.0110303626955524	0.0100051527005728	0.0116344458782589	0.0130359615385353	0.0135446976871439	0.0141453625432071	0.0151300690371684	0.0137857338683398	0.0142011162833398	0.012204383250118	0.0110470964354184	0.0116677834533504	0.0116677834533504	0.0117369316371005	0.0093508900290763	0.0105535330227877	0.00971795865275525	0.00911729379669201	0.00732852206455794	0.00753042767465165	0.0064522894549486	0.00617884968243598	0.00617884968243598	0.00613945123488774	0.00674011609095098	0.00617757876477313	0.00653726954749272	0.00508795229489622	0.00422640910659694	0.00533690940983557	0.00568169467652062	0.00576868357894366	0.00645353124380339	0.00709490782899981	0.00817873523090373	0.00759744666051994	0.00834036872417978	0.00834036872417978	0.00980493001877521	0.0101334991672531	0.0107748757524495	0.00966437544921086	0.00973045577548896	0.00948485085220468	0.0093625405135228	0.00919863729196619	0.00811480989006228	0.0103837990666755	0.00993887361954635	0.0117050770065165	0.0118840403360906	0.0112343812587691	0.0115436059003365	0.0115436059003365	0.011451497952647	0.0116742746204359	0.0125244095180927	0.0125244095180927	0.0138480237034627	0.0131196582158433	0.0133339449937705	0.0124580029013763	0.010628309031383	0.00979455755883531	0.0104890000710971	0.0110515373972749	0.0111044602274783	0.0104196125626185	0.00969178800364364	0.00921431464000383	0.00789070045463378	0.00822567236923092	0.00711272411870976	0.00678500015031169	0.00706668333151417	0.00798662000257595	0.0077576890461103	0.00846407898075905	0.00763032750821136	0.00887771249924895	0.00819286483438922	0.00897369347673357	0.0107815050983171	0.0112073396641955	0.0112073396641955	0.0106448023380176	0.00974243213888314	0.0101280301506131	0.00871191736805315	0.00744299010722655	0.0082238187495709	0.00914194603696582	0.00914194603696582	0.00987321115466605	0.00806539953308256	0.00634525793399696	0.00822183198776297	0.00862710431792907	0.00926848090312549	0.00796294622033374	0.0105653727596451	0.011999789088256	0.01252730122233	0.0130725015772319	0.014740901029287	0.0151053813230084	0.0159122375867642	0.0153309490163804	0.0147245882091473	0.0151530673515289	0.0152673313879561	0.0156861127957944	0.0144356383921153	0.0135825106338881	0.0137927689948773	0.0122859702729171	0.010617570820862	0.00874099676709601	0.00793414050334018	0.0092002767385837	0.00871089213439514	0.00787714066184745	0.00868399692560328	0.0094225023324646	0.00807055019683236	0.00748926162644857	0.00597066248904115	0.00587724888090552	0.00649793589883753	0.00730479216259336	0.00730479216259336	0.00603865592734985	0.0052578272850055	0.0057353006486453	0.00444624353577854	0.00328895672107891	0.00328895672107891	0.00328895672107891	0.00385149404725677	0.00318815922505437	0.00439080221876579	0.00444548914330925	0.00444548914330925	0.00490756014038002	0.00490756014038002	0.00443008677674022	0.00415664700422759	0.00415664700422759	0.00473793557461137	0.00533860043067462	0.00477606310449676	0.00432889762346053	0.00366040901320837	0.0027988658249091	0.00330870127208449	0.00365348653876954
0.0100508696073929	0.0119986972403004	0.0119986972403004	0.00928017541554987	0.00958940005711729	0.00908848017596333	0.00945052741046937	0.0105810498755768	0.00872955800204212	0.00950036565202508	0.0110409893410189	0.0111898931487068	0.0107427276676706	0.00939556489082634	0.0109832497969265	0.0136485532922653	0.0137521784734942	0.0146550157147346	0.0144948740903223	0.0133643516252149	0.0154068670608624	0.0137745162225802	0.0141173000463427	0.0133477092207228	0.0138225187955933	0.014305681341434	0.0127179964353338	0.0105970839008123	0.00954285749281959	0.00795517258671941	0.00733448556878739	0.00844304717561447	0.00893316486518646	0.0100520148140227	0.00892424792288989	0.00823940025803016	0.00792308237193866	0.00778985619679859	0.00849753211715364	0.00866081707669142	0.00866081707669142	0.00866081707669142	0.00866081707669142	0.00891283690449327	0.00638020377927372	0.0052613538304375	0.00450571320881393	0.00510637806487717	0.00567953164981282	0.00599099402617741	0.00680191724322978	0.00682550644057494	0.00682550644057494	0.00682550644057494	0.00682550644057494	0.00841306981475889	0.00899435838514267	0.00953874934595995	0.0103763121616366	0.0122755874900372	0.0114007285620303	0.0120231226739443	0.0114244602075986	0.0113138821078304	0.0113138821078304	0.0122329110991047	0.0122329110991047	0.00928476629029178	0.0101439660063913	0.0101621123717519	0.00932454955607526	0.0074452963895434	0.00788775969696538	0.00664467856711941	0.00620221525969743	0.00558152824176541	0.00604359923883619	0.00650657791569451	0.00906824777568005	0.00906824777568005	0.00974136955866837	0.00988650815284557	0.010527884738042	0.00990719772010997	0.00925188018373782	0.00956110482530525	0.0109230151118307	0.0113701805928669	0.0109081095957962	0.010035937374839	0.00818194343520849	0.00921551904959792	0.00814952251439947	0.00744184659404441	0.00838769576546112	0.00905045157016409	0.0094935083558295	0.0103664002496575	0.00852701659949223	0.00807985111845599	0.00874260692315896	0.00984612850745038	0.00913845258709532	0.0081048769727059	0.00705726343843274	0.00920464133869292	0.00839824422442414	0.00773548841972117	0.00702781249936612	0.00637252592605196	0.00708020184640701	0.00708020184640701	0.00641744604170405	0.00480408901023724	0.00480408901023724	0.00480408901023724	0.00699578087290649	0.00484840297264632	0.00461196529111924	0.00503074669895755	0.00503074669895755	0.00502918436035483	0.00518305162829905	0.00518305162829905	0.00586789929315878	0.0064885863110908	0.0084364139439983	0.0084364139439983	0.00624472208132905	0.00719532330809289	0.00733578001213534	0.00691699860429704	0.00804752106940444	0.00688087686072951	0.00645207446052982	0.00799269814952362	0.0087622889751436	0.00814160195721158	0.00679443918036732	0.00679443918036732	0.00919512354101649	0.00875435776142803	0.00887636636032413	0.00949705337825615	0.00836653091314874	0.00980838149273306	0.00937564070463347	0.00971842452839603	0.00826398603791632	0.00869672682601591	0.00917988937185658	0.00917988937185658	0.00732359597202469	0.0068137605248493	0.00600690426109347	0.00538621724316146	0.0056879225862327	0.00677870513186794	0.00742008171706436	0.00629231482593156	0.00629231482593156	0.00663875274454303	0.00555492534263911	0.00626260126299416	0.00571821030217689	0.00571821030217689	0.00571821030217689	0.00571821030217689	0.00594333492118688	0.00341070179596733	0.00276932521077091	0.00201368458914734	0.00201368458914734	0.00258683817408299	0.00322821475927941	0.00252053883892435	0.00325180395662458	0.00325180395662458	0.00325180395662458	0.00325180395662458	0.00567311880335621	0.00567311880335621	0.00621750976417349	0.0066362911720118	0.00913623135647567	0.00826137242846878	0.00950445355831474	0.0104243902293765	0.00969312511167631	0.00969312511167631	0.0106121541029505	0.0106121541029505	0.00766400929413767	0.00834885695899741	0.00836700332435798	0.00794822191651967	0.00606896874998782	0.00559149538634802	0.00434841425650205	0.00390595094908006	0.00390595094908006	0.00436802194615084	0.00483100062300917	0.0073926704829947
0.00784828563168763	0.007737434060931	0.00698179343930744	0.00775154870779746	0.00724171326062207	0.00778704215721981	0.00648701057477897	0.00640194661224092	0.00784596747894723	0.00821727353797838	0.00748600842027816	0.00834755160857744	0.00816738782229633	0.00765755237512094	0.00820194333593822	0.00788959012584243	0.0102345677710543	0.00995786991378711	0.0113412119286505	0.0122577594874139	0.011140293105463	0.0110256627418303	0.012373266211393	0.0115117230230937	0.0109110581670305	0.0116187340873855	0.0110743431265682	0.0105941128126787	0.0108704692464912	0.0110102951876735	0.0109505673581801	0.0101572112918401	0.00971302038910236	0.00911235553303911	0.00807651425131671	0.00807651425131671	0.00807651425131671	0.00793137565713951	0.00837854113817574	0.00807324092092215	0.00609328342709417	0.00552541232006881	0.00420179813469876	0.00401991468647382	0.00398317112330113	0.00473881174492469	0.0044270495570844	0.0044270495570844	0.0044270495570844	0.00533412429936534	0.0048869588183291	0.00571908899766394	0.00576256007732725	0.0056272799734419	0.00697488344300459	0.00698884282326587	0.00663338735724556	0.00587774673562199	0.00587774673562199	0.00663338735724556	0.00663338735724556	0.00735245909206153	0.00815931535581736	0.00694763772887639	0.00626279006401666	0.0069537301738572	0.00618741527467829	0.00575467448657871	0.00712510621163673	0.00712510621163673	0.00750465365924286	0.00674901303761929	0.00778848146338962	0.0062004625161781	0.00627074568115198	0.00627074568115198	0.00707760194490781	0.00629677330256346	0.00742903778420254	0.00840518026815487	0.00703474854309685	0.00765543556102887	0.00772305359445897	0.00836443017965539	0.00850818609799493	0.00790752124193169	0.0076717583983984	0.00829244541633041	0.00748558915257459	0.00684421256737817	0.00676904583078478	0.00579290334683245	0.00604072563738466	0.00610488628431238	0.00565772080327614	0.00579717286042407	0.0046139485163142	0.0046139485163142	0.00463532773582075	0.00401464071788873	0.00401464071788873	0.00401464071788873	0.00381983884950657	0.00457547947113014	0.00558972078370636	0.00544926407966391	0.00544926407966391	0.00466843543731956	0.00514590880095936	0.00514590880095936	0.0044831529962564	0.00541650249410241	0.00541650249410241	0.00541650249410241	0.00459360506498711	0.00459360506498711	0.00403921738221373	0.00400466186857184	0.00503062121666996	0.00633065279911081	0.005853179435471	0.00636301488264639	0.00636301488264639	0.0061609305025006	0.0061609305025006	0.00694175914484495	0.00683090757408833	0.00607526695246476	0.00631819225887355	0.00580835681169816	0.00573299869036389	0.00443296710792304	0.00491044047156285	0.00635446133826916	0.00706975655796513	0.0063384914402649	0.0063384914402649	0.0061583276539838	0.00564849220680841	0.00564849220680841	0.00469789098004456	0.00704286862525644	0.00738685778592126	0.00877019980078469	0.00902399155484511	0.0079065251728942	0.00779189480926147	0.00845465061396444	0.00845465061396444	0.0078539857579012	0.00856166167825625	0.00856166167825625	0.00856166167825625	0.00751250650266284	0.00765233244384511	0.00626899042898168	0.00553772531128146	0.00509353440854366	0.00449286955248042	0.00383011374777746	0.00383011374777746	0.00383011374777746	0.0031224378274224	0.00356960330845864	0.00394915075606477	0.0026533282864463	0.00208545717942095	0.00208545717942095	0.00208545717942095	0.00204871361624826	0.00280435423787182	0.00280435423787182	0.00280435423787182	0.00280435423787182	0.00346711004257479	0.00301994456153855	0.00385207474087339	0.00453692240573312	0.00440164230184776	0.00574924577141046	0.00618198655951004	0.00582653109348973	0.00507089047186617	0.00507089047186617	0.00507089047186617	0.00507089047186617	0.00576306699789028	0.00656992326164611	0.00535824563470514	0.00467339796984541	0.00472296149448953	0.00395664659531062	0.00352390580721104	0.004186661611914	0.004186661611914	0.00456620905952013	0.00456620905952013	0.00498499046735844	0.00423072299269461	0.00430100615766849	0.00430100615766849	0.00430100615766849	0.00352017751532414	0.00367015406264058
0.00587784663800114	0.00722038996363577	0.00836330654229474	0.00836330654229474	0.00783014348261029	0.00925234871015106	0.0104997337011886	0.0110831096315042	0.0104824447754409	0.0104824447754409	0.00946120653993569	0.00953035472368574	0.00953035472368574	0.00735405992550342	0.00586715418617964	0.00672869737447891	0.00747778998096178	0.00752126106062509	0.00681826703040479	0.0054792504784657	0.00678478516125745	0.00723195064229369	0.00678478516125745	0.0062222478350796	0.00666941331611583	0.00737708923647089	0.00737708923647089	0.00651554604817161	0.00491760883324063	0.00345193252603656	0.00427693515515296	0.00503257577677652	0.00372704109398477	0.0047715795415641	0.0047715795415641	0.0064227813303261	0.00597561584928987	0.00624507167785168	0.0070519279416075	0.0070519279416075	0.0070519279416075	0.00752940130524731	0.00616000771531363	0.00715653359374524	0.00715653359374524	0.00620922062594696	0.00620922062594696	0.00455801883718495	0.00455801883718495	0.00474909363554574	0.00456292438972193	0.00527060031007699	0.00689212672235313	0.00752515366195196	0.00752515366195196	0.00577298716189678	0.00629981712397802	0.00575542616316074	0.00575542616316074	0.00791940720930927	0.00791940720930927	0.00675120066203162	0.00675120066203162	0.00664418959773981	0.00597232647644705	0.00538865613528965	0.00538865613528965	0.00650624458824897	0.00771084449527592	0.00875420406273048	0.00993742840684035	0.00830027732277306	0.00937495503558464	0.00937495503558464	0.00943911568251235	0.00981956651931679	0.00953265903303637	0.00900582907095514	0.00900582907095514	0.00788824061799582	0.00696366701264346	0.0059203074451889	0.00473708310107902	0.00489510080385752	0.00434725305312717	0.00547777551823458	0.00559978411713068	0.00506583390529923	0.00524816985837051	0.00569533533940674	0.00569533533940674	0.00569533533940674	0.00488847907565092	0.00565225541579294	0.00565225541579294	0.00565225541579294	0.00585669057141193	0.00472616810630452	0.00391931184254869	0.00347214636151245	0.00364727370824725	0.00320010822721102	0.00376264555338887	0.00376264555338887	0.00442540135809184	0.00420601597876709	0.00420601597876709	0.00352116831390736	0.00347475086106686	0.00347475086106686	0.00393682185813764	0.00393682185813764	0.00422073514352799	0.00422073514352799	0.00449194928989782	0.00483593845056264	0.00417318264585968	0.00454872835610418	0.00454872835610418	0.00454872835610418	0.00461952131286802	0.00522018616893126	0.00475811517186048	0.0055188429680469	0.00470809972057531	0.00470809972057531	0.00569518758018963	0.00535119841952481	0.00535119841952481	0.00528010635691114	0.00592148294210755	0.00716886793314514	0.00775224386346066	0.00715157900739742	0.00715157900739742	0.00683801669224724	0.00634462754981944	0.00634462754981944	0.00452378821765743	0.00452378821765743	0.00538533140595671	0.00524416271786365	0.00538361477501159	0.00468062074479128	0.0033416041928522	0.00464713887564394	0.00464713887564394	0.00419997339460771	0.00419997339460771	0.00464713887564395	0.005354814795999	0.005354814795999	0.00449327160769972	0.00378559568734467	0.00300476704500032	0.00382976967411672	0.00382976967411672	0.00252423499132497	0.0032090826561847	0.0032090826561847	0.00394034777388493	0.00349318229284869	0.00332989733331092	0.00413675359706674	0.00413675359706674	0.00413675359706674	0.00413675359706674	0.00276736000713306	0.00451952650718824	0.00451952650718824	0.00437906980314578	0.00437906980314578	0.00364780468544556	0.00364780468544556	0.00363024368670952	0.00282338742295369	0.00353106334330875	0.00515258975558489	0.00566242520276028	0.00566242520276028	0.00391025870270511	0.00443708866478634	0.00389269770396906	0.00389269770396906	0.00455545350867203	0.00455545350867203	0.00402862354659079	0.00464931056452281	0.004542299500231	0.00346516404877213	0.00295532860159674	0.00295532860159674	0.00364017626645647	0.00484477617348343	0.00484477617348343	0.00540731349966128	0.00527138765703956	0.00634606536985113	0.00634606536985113	0.00641022601677885	0.00679067685358329	0.00690904169746897	0.00690904169746897	0.00690904169746897
0.00577775671709782	0.00655858535944217	0.00700990571509902	0.00753673567718026	0.00722497348933997	0.00640091975133556	0.00640091975133556	0.00640091975133556	0.00611018738850246	0.0079041883593367	0.00652416566742257	0.00869792092488958	0.00794228030326601	0.0076882816230029	0.00695375291024922	0.00642692294816798	0.00642692294816798	0.00642692294816798	0.00680647039577411	0.00680647039577411	0.00661426252022368	0.00482026154938944	0.0042934315873082	0.00211967632984119	0.00270096490022497	0.00217413493814374	0.00245734329524057	0.00245734329524057	0.00303863186562435	0.00374630778597941	0.00336676033837327	0.00412240095999684	0.00328864948744915	0.00328864948744915	0.00328864948744915	0.00328864948744915	0.0033922085819251	0.0033922085819251	0.00272945277722213	0.00272945277722213	0.00214816420683835	0.00224734455023912	0.00275717999741451	0.00200153937579095	0.00200153937579095	0.00269192446605963	0.00269192446605963	0.00347614972389871	0.00279130205903898	0.00279130205903898	0.00279130205903898	0.00279130205903898	0.00333569301985626	0.00429195333276742	0.00458801126430415	0.00529568718465921	0.00529568718465921	0.00522598911232255	0.00522598911232255	0.00444176385448347	0.00444176385448347	0.00444176385448347	0.00444176385448347	0.00444176385448347	0.00389737289366619	0.0021342563169992	0.00132836293828707	0.000620687017932017	0.00118322434410987	0.000562537326177855	0.000562537326177855	0.000845091757774237	0.00148646834297065	0.00148646834297065	0.00196394170661046	0.00236921403677656	0.00295050260716035	0.00295050260716035	0.00295050260716035	0.00353179117754413	0.00296925385136627	0.00415883961815048	0.00440666190870269	0.00412410747710631	0.00348273089190989	0.00348273089190989	0.00300525752827008	0.00259998519810398	0.00254552658980143	0.00299269207083767	0.00345476306790845	0.00287347449752467	0.00287347449752467	0.00241515384844069	0.00216733155788848	0.00269416151996971	0.00269416151996971	0.00269416151996971	0.00269416151996971	0.00269416151996971	0.00266072070031627	0.00297632578778316	0.00251425479071238	0.00304108475279362	0.00304108475279362	0.0023098196350934	0.0023098196350934	0.00178298967301216	0.00178298967301216	0.00215029365456648	0.00215029365456648	0.00215029365456648	0.00165690451213868	0.00155688974833852	0.00155688974833852	0.00169281559096025	0.00169281559096025	0.00200457777880054	0.00282863151680495	0.00282863151680495	0.00282863151680495	0.00297116298242602	0.00297116298242602	0.00423663905122498	0.00423663905122498	0.00357388324652201	0.00357388324652201	0.00402520360217886	0.0045520335642601	0.00424027137641981	0.0034162176384154	0.0034162176384154	0.0034162176384154	0.00393234153933813	0.00393234153933813	0.00319369543262041	0.00536745069008742	0.00536745069008742	0.00589428065216866	0.00515975193941497	0.00463292197733374	0.00463292197733374	0.00463292197733374	0.00501246942493987	0.00501246942493987	0.00482026154938944	0.00482026154938944	0.0042934315873082	0.00211967632984119	0.00270096490022497	0.00217413493814374	0.0017945874905376	0.0017945874905376	0.00237587606092139	0.00308355198127644	0.00270400453367031	0.00345964515529387	0.00262589368274618	0.00262589368274618	0.00262589368274618	0.00262589368274618	0.0020446051123624	0.0020446051123624	0.0020446051123624	0.0020446051123624	0.00146331654197862	0.00156249688537939	0.00207233233255478	0.00131669171093122	0.00131669171093122	0.00131669171093122	0.00131669171093122	0.00163884597169952	0.00163884597169952	0.00163884597169952	0.00163884597169952	0.00163884597169952	0.0021832369325168	0.00215720931110532	0.00245326724264206	0.00245326724264206	0.00245326724264206	0.00307395426057407	0.00307395426057407	0.00275179999980577	0.00275179999980577	0.00275179999980577	0.00275179999980577	0.00275179999980577	0.00220740903898849	0.00142658039664415	0.000620687017932017	0.000620687017932017	0.00118322434410987	0.000562537326177855	0.000562537326177855	0.000845091757774237	0.000845091757774237	0.000845091757774237	0.00132256512141404	0.00172783745158015	0.00230912602196393	0.00230912602196393	0.00230912602196393
0.00531694097614271	0.00465418517143975	0.00526851288096123	0.00526851288096123	0.00457384796818559	0.00393247138298917	0.00393247138298917	0.00336993405681132	0.00336993405681132	0.00305066224181278	0.00265846321261977	0.00265846321261977	0.00265846321261977	0.00265846321261977	0.00152257121360948	0.0031348103048735	0.00383721982325156	0.00383721982325156	0.00383721982325156	0.00467883826792847	0.00534159407263143	0.00520300021363897	0.00520300021363897	0.00572983017572021	0.00572983017572021	0.00572983017572021	0.005619252075952	0.00400701298468798	0.00311396222646391	0.00311396222646391	0.00311396222646391	0.002272343781787	0.00241644424083986	0.00362289059880058	0.00362289059880058	0.00371674765465136	0.00371674765465136	0.00371674765465136	0.00358944977914714	0.00432071489684736	0.00432071489684736	0.00472598722701347	0.00514476863485177	0.00514476863485177	0.00433791237109595	0.00266939501606445	0.00266939501606445	0.00252618136177224	0.0031889371664752	0.00473016017850921	0.00423677103608141	0.00350550591838119	0.00408679448876497	0.00368152215859887	0.00326274075076056	0.00392549655546353	0.00392549655546353	0.00392549655546353	0.0044698875162808	0.00477324279498535	0.00411048699028238	0.00256926397824838	0.00256926397824838	0.00256926397824838	0.00198797540786459	0.00293358677778414	0.00293358677778414	0.00270357176118076	0.00343483687888098	0.00343483687888098	0.0028904459180637	0.00254235806381894	0.00378640243890568	0.00434893976508354	0.00487576972716478	0.00487576972716478	0.00487576972716478	0.00393015835724523	0.00393015835724523	0.00455164397713832	0.00433021430661348	0.00433021430661348	0.00511104294895783	0.00467830216085825	0.0034342577857715	0.0035793963799487	0.00356240186504286	0.00410679282586013	0.00504353686226423	0.00504353686226423	0.00504353686226423	0.00398931045427156	0.00347947500709617	0.00347947500709617	0.00269864636475182	0.00269864636475182	0.00358890765932774	0.00327343076816569	0.0027635953209903	0.00329734257987607	0.00358525280359999	0.00358525280359999	0.00412964376441727	0.00412964376441727	0.00479239956912024	0.00479239956912024	0.00514785503514055	0.00514785503514055	0.00487828075849664	0.00448608172930364	0.0052417223509272	0.00527408443446279	0.00404943017433477	0.00404943017433477	0.00416779501822046	0.0045006877543477	0.00383793194964473	0.00472323810226639	0.0050091592214425	0.0050091592214425	0.00438847220351048	0.00438847220351048	0.0045527682529487	0.00383446697890307	0.00383446697890307	0.00383446697890307	0.00317171117420011	0.00470597555478338	0.00470597555478338	0.00401131064200774	0.00336993405681132	0.00336993405681132	0.00336993405681132	0.00336993405681132	0.00244999738574953	0.00205779835655653	0.00205779835655653	0.00205779835655653	0.00205779835655653	0.000921906357546239	0.00156328294274266	0.00226569246112071	0.00226569246112071	0.00226569246112071	0.00272776345819149	0.00339051926289446	0.00385259025996524	0.00385259025996524	0.00437942022204647	0.00437942022204647	0.00437942022204647	0.00426884212227827	0.00362746553708185	0.00273441477885778	0.00273441477885778	0.00273441477885778	0.002272343781787	0.00241644424083986	0.00300220358086856	0.00300220358086856	0.00309606063671934	0.00309606063671934	0.00309606063671934	0.00296876276121512	0.00370002787891535	0.00370002787891535	0.00410530020908145	0.00452408161691976	0.00452408161691976	0.00371722535316393	0.00266939501606445	0.00266939501606445	0.00204870799813243	0.00204870799813243	0.00323447554414613	0.00274108640171833	0.00200982128401811	0.00200982128401811	0.001604548953852	0.0011857675460137	0.0011857675460137	0.0011857675460137	0.0011857675460137	0.0011857675460137	0.0011857675460137	0.0011857675460137	0	0	0	0	0	0	0.000432740788099584	0.00116400590579981	0.00116400590579981	0.00116400590579981	0.00159674669389939	0.00225950249860236	0.00225950249860236	0.00278633246068359	0.00278633246068359	0.00278633246068359	0.00278633246068359	0.00278633246068359
0.00436640099741256	0.00436640099741256	0.00295136095448109	0.00359493645341209	0.0048583571141783	0.0048583571141783	0.00324377699928626	0.00324377699928626	0.00324377699928626	0.00324377699928626	0.00269938603846898	0.00269938603846898	0.00218955059129359	0.00218955059129359	0.00218955059129359	0.00126342066076621	0	0	0	0	0	0	0	0	0.000462070997070778	0.000462070997070778	0.000763776340142027	0.00125716548256982	0.00125716548256982	0.00125716548256982	0.00125716548256982	0.00125716548256982	0.00210868767850772	0.00256833319151391	0.00256833319151391	0.00256833319151391	0.00210626219444314	0.00210626219444314	0.00234894781218917	0.00239994963057865	0.00287742299421845	0.00369296639741455	0.00369296639741455	0.00479641397968174	0.00394489178374385	0.00348524627073766	0.00348524627073766	0.00348524627073766	0.00348524627073766	0.00348524627073766	0.00294085530992038	0.0023964643491031	0.00235173177356288	0.00153618837036678	0.00153618837036678	0.000432740788099584	0.000432740788099584	0.000432740788099584	0.000432740788099584	0.000432740788099584	0.000926129930527382	0.00175988140307507	0.00175988140307507	0.00175988140307507	0.00132714061497549	0.00132714061497549	0.00132714061497549	0.00132714061497549	0.00132714061497549	0.00132714061497549	0.00171933964416849	0.00171933964416849	0.00122595050174069	0.000797471359359108	0.000797471359359108	0.000797471359359108	0.00129086050178691	0.00129086050178691	0.00129086050178691	0.0017842496442147	0.00256507828655905	0.00301224376759529	0.00262004473840229	0.00309751810204209	0.00309751810204209	0.00302513850800323	0.00334729276877153	0.00334729276877153	0.00341644095252159	0.00414770607022181	0.00414770607022181	0.00365431692779401	0.00327876061561577	0.00283159513457953	0.00283159513457953	0.00268701450706697	0.00268701450706697	0.00297480878887174	0.00265265452810344	0.00369212295387377	0.00379234143239888	0.00349381710279824	0.00349381710279824	0.00349381710279824	0.00308854477263213	0.00350732618047044	0.00350732618047044	0.0031744334443432	0.00400114637298557	0.00384253035212433	0.00450528615682729	0.00346581773105697	0.00328053528999381	0.00284779450189422	0.00284779450189422	0.00342908307227801	0.00371163750387439	0.00329285609603608	0.00329285609603608	0.00329285609603608	0.00246614316739371	0.00200407217032293	0.00134131636561997	0.00188570732643725	0.00140823396279744	0.00191806940997283	0.00191806940997283	0.00133678083958905	0.00198035633852005	0.00258102119458329	0.00258102119458329	0.00258102119458329	0.00258102119458329	0.00258102119458329	0.00258102119458329	0.00203663023376602	0.00203663023376602	0.00152679478659062	0.00152679478659062	0.00152679478659062	0.000600664856063243	0	0	0	0	0	0	0	0	0	0	0.000301705343071248	0.000795094485499046	0.000795094485499046	0.000795094485499046	0.000795094485499046	0.000795094485499046	0.000795094485499046	0.00125473999850524	0.00125473999850524	0.00125473999850524	0.00125473999850524	0.00125473999850524	0.000953034655433996	0.00100403647382348	0.00148150983746328	0.00229705324065938	0.00229705324065938	0.00229705324065938	0.00229705324065938	0.00183740772765318	0.00183740772765318	0.00183740772765318	0.00183740772765318	0.00183740772765318	0.00183740772765318	0.0012930167668359	0.00124828419129568	0.000432740788099584	0.000432740788099584	0.000432740788099584	0.000432740788099584	0.000432740788099584	0.000432740788099584	0.000432740788099584	0.000926129930527382	0.00175988140307507	0.00175988140307507	0.00175988140307507	0.00132714061497549	0.00132714061497549	0.00132714061497549	0.00132714061497549	0.00132714061497549	0.00132714061497549	0.00171933964416849	0.00171933964416849	0.00122595050174069	0.000797471359359108	0.000797471359359108	0.000797471359359108	0.000797471359359108	0.000797471359359108	0.000797471359359108
0.00343304426902213	0.00343304426902213	0.00343304426902213	0.00318522197846992	0.00318522197846992	0.00384797778317288	0.00462948859750994	0.00462948859750994	0.00462948859750994	0.00462948859750994	0.00295003964555434	0.00258273566400002	0.00197109658112126	0.00197109658112126	0.00197109658112126	0.00197109658112126	0.0023506440287274	0.00168788822402443	0.00090637740968737	0.00090637740968737	0.00090637740968737	0.00090637740968737	0.00127368139124169	0.00127368139124169	0.00127368139124169	0.00127368139124169	0.00200297308258297	0.00248044644622277	0.00210089899861664	0.00210089899861664	0.00217473389259864	0.00217473389259864	0.00217473389259864	0.0033429404398763	0.00353817378449983	0.00353817378449983	0.00353817378449983	0.00353817378449983	0.00280888209315856	0.00233140872951875	0.00233140872951875	0.00233140872951875	0.00237212045865193	0.00237212045865193	0.00286550960107973	0.00169730305380207	0.00113476572762422	0.00113476572762422	0.00113476572762422	0.00113476572762422	0.00113476572762422	0.00113476572762422	0.00113476572762422	0.00227982154450474	0.00163844495930832	0.00163844495930832	0.00114505581688052	0.00114505581688052	0.00114505581688052	0.00114505581688052	0.00114505581688052	0.00114505581688052	0.00114505581688052	0.00114505581688052	0.00155032814704663	0.000405272330166104	0.000986560900549887	0.00149639634772528	0.00149639634772528	0.00149639634772528	0.00149639634772528	0.00185185181374559	0.00185185181374559	0.00185185181374559	0.00185185181374559	0.00185185181374559	0.00144657948357949	0.00144657948357949	0.000865290913195703	0.0012656696177597	0.00184695818814348	0.0031636498990747	0.0031636498990747	0.00280819443305439	0.00280819443305439	0.00280819443305439	0.00280819443305439	0.00280819443305439	0.00280819443305439	0.00280819443305439	0.00318774188066052	0.00271026851702072	0.00212897994663694	0.000812288235705717	0.000812288235705717	0.000812288235705717	0.000812288235705717	0.000812288235705717	0.000812288235705717	0.000812288235705717	0.000812288235705717	0.0010948426673021	0.000715295219695967	0.000282554431596382	0.000282554431596382	0.000282554431596382	0.000282554431596382	0.000282554431596382	0.000282554431596382	0.000282554431596382	0.000687826761762486	0.000687826761762486	0.000687826761762486	0.000405272330166104	0.000405272330166104	0.000405272330166104	0.000653094620718316	0.000653094620718316	0.000653094620718316	0.00117992458279955	0.00117992458279955	0.00117992458279955	0.00077465225263345	0.00245410120458905	0.00282140518614338	0.00343304426902213	0.00343304426902213	0.00343304426902213	0.00318522197846992	0.00318522197846992	0.00318522197846992	0.00396673279280698	0.00396673279280698	0.00396673279280698	0.00396673279280698	0.00228728384085138	0.00191997985929705	0.0013083407764183	0.0013083407764183	0.0013083407764183	0.0013083407764183	0.00168788822402443	0.00168788822402443	0.000379547447606133	0.000379547447606133	0.000379547447606133	0.000379547447606133	0.000379547447606133	0.000379547447606133	0.000379547447606133	0.000379547447606133	0.00110883913894741	0.00158631250258721	0.00120676505498108	0.00120676505498108	0.00180742991104432	0.00180742991104432	0.00180742991104432	0.00297563645832198	0.00297563645832198	0.00297563645832198	0.00297563645832198	0.00297563645832198	0.0022463447669807	0.0017688714033409	0.0017688714033409	0.0017688714033409	0.00116820654727766	0.00116820654727766	0.00166159568970545	0.000493389142427798	0.000493389142427798	0.000493389142427798	0.000493389142427798	0.000493389142427798	0.000493389142427798	0.000493389142427798	0.000493389142427798	0.00163844495930832	0.00163844495930832	0.00163844495930832	0.00114505581688052	0.00114505581688052	0.00114505581688052	0.00114505581688052	0.00114505581688052	0.00114505581688052	0.00114505581688052	0.00114505581688052	0.00155032814704663	0.000405272330166104	0.000986560900549887	0.000986560900549887	0.000986560900549887	0.000986560900549887	0.000986560900549887	0.0013420163665702	0.0013420163665702	0.0013420163665702	0.0013420163665702	0.0013420163665702	0.000936744036404095	0.000936744036404095	0.000355455466020312
