1.3709714945139	1.38091479354735	1.37116095930687	1.38125042850579	1.37385414494711	1.36939315291005	1.37854369044814	1.37176998441861	1.37189199249086	1.36808160637778	1.37677114687379	1.36031313146043	1.36124225394847	1.36258963229473	1.37872162210023	1.37485309282729	1.37271765397531	1.38604903783207	1.40675166099634	1.4134079336098	1.42817178412617	1.41840061549621	1.42443374913857	1.4291112341555	1.43632786717584	1.42472716525724	1.42898069272208	1.42024811721871	1.41906861267217	1.41621790365404	1.41007261730589	1.4147594239738	1.4174825058505	1.41922806713666	1.41618214926053	1.42094459216672	1.41675195107908	1.39792792275382	1.39104440151759	1.39669397954309	1.3932317076999	1.39695711237894	1.4051293062378	1.40283951725844	1.41854398990742	1.41670782821975	1.4223794267258	1.42311722229284	1.41568469346837	1.43582125410082	1.43240413902423	1.42723351041351	1.42754802389455	1.42556342064511	1.43691661630898	1.40840738437596	1.40419511372408	1.39114201597616	1.39153588121703	1.39091370885784	1.38495803811886	1.38590160932833	1.38466019286833	1.38923973082379	1.39098500934748	1.39446837194495	1.40544227916242	1.39755533103705	1.39878894999358	1.40296829937895	1.39705500366928	1.40021246596219	1.40193478458356	1.39562638321164	1.40695020845807	1.41636967036165	1.42633098249402	1.41273328647862	1.42494738880004	1.40897728631524	1.40792179865107	1.41281362909688	1.3903319084719	1.39357451788073	1.38164336271469	1.38990768414431	1.37457391532714	1.3700199564377	1.35510118524096	1.35827134555055	1.36167315411463	1.35163068647029	1.35530254104545	1.37935326113569	1.37088025748049	1.38237629643284	1.38249118171273	1.37899402388266	1.38092217696569	1.38037133971899	1.37393256596636	1.36770910778876	1.35929463259007	1.35054314395976	1.34730589536508	1.34274602226095	1.33036831968929	1.32555359846996	1.32744516074685	1.31853777358356	1.31520248432843	1.31952593779189	1.30329556299216	1.2920773503281	1.29316067917434	1.28169596056385	1.28013258567516	1.28134009442454	1.27939498486584	1.2855385376632	1.28629844170855	1.29600971002733	1.29517357127072	1.29266550448159	1.29438432836316	1.29888335968281	1.29762315483465	1.28503772160102	1.29303052095479	1.29822354374744	1.27640053901543	1.25388871295213	1.25888610162511	1.25080195296017	1.24485070063915	1.24543438125376	1.24369803736281	1.23782499321726	1.22536521699766	1.23338977215769	1.23185639105839	1.24242659239649	1.23644942234329	1.24357619830781	1.24736843090149	1.24033729935653	1.23808917450991	1.2401533815262	1.23426296636976	1.25251763721727	1.25394762361097	1.25846588721461	1.2407695440764	1.25081990598206	1.2341815963085	1.22796816588243	1.2259586299675	1.2079938390496	1.20318571132246	1.20402215412761	1.20823906103171	1.19289634770257	1.18193153129486	1.17976443684428	1.17105330750334	1.16906422170802	1.15833746748048	1.15829047491961	1.18485578871824	1.17230901532882	1.18049410386575	1.17166165955761	1.17565444128724	1.17897310184588	1.18041068550954	1.18035332674711	1.18668743045208	1.18044564883603	1.17053204366178	1.16984058867772
1.03668251028811	1.03067446461186	1.02410082679287	1.01057971931913	1.00726054026251	0.996318748865582	1.0077482618613	0.998701747353927	0.996073078087173	0.993395344752755	0.995473497519837	0.991709114418145	1.00873696184458	1.00539606580458	1.00942096664949	1.0242754969011	1.03718036953753	1.03731445315724	1.04736041542099	1.0700057663891	1.07460558895098	1.07720236671756	1.08050622156696	1.08158740605183	1.08651863435041	1.08168485884903	1.08526121930159	1.09497391799746	1.08512016135685	1.07054226802219	1.0687940039221	1.06229134154612	1.06928662711051	1.08425264571203	1.10915836111629	1.10552492961244	1.11230230069788	1.12676663528866	1.12889402701564	1.14575461416942	1.15855222869986	1.17050446709014	1.18249015681697	1.18601894376574	1.18311699728799	1.18746505293289	1.19285009444954	1.19228399640083	1.19848175626631	1.1905281568987	1.18515148632374	1.18739130780517	1.18267075753814	1.16646095365799	1.16816232867585	1.17060294258647	1.15346051429123	1.14547759013229	1.1423724020172	1.14205985444571	1.13368626237325	1.12666860908487	1.12010304371393	1.12555558777007	1.11521360035525	1.12588221912148	1.14624066811922	1.14379434735395	1.1463298476576	1.14960089782272	1.13155134808245	1.11033915536379	1.11100001965065	1.1017367207953	1.09391400464954	1.08271577323774	1.07543250644577	1.06354346216021	1.04621773152491	1.04357553580456	1.03132571539681	1.0307061932142	1.0234381940068	1.01829421320307	1.01175432505936	1.01083697101739	1.00572820597832	1.00815234304448	1.0058454570566	0.998363376930308	1.01110652118583	1.0150813983189	1.0121911022391	1.01214540608826	1.02756384494412	1.03559713440615	1.03537783964577	1.03609992641198	1.03382527356814	1.03123079933145	1.02263848332298	1.02961448924497	1.03483677482248	1.02189377296916	1.00760408323994	1.00275527131981	0.998452007863698	0.994565241834938	1.0123355712998	1.02320341216391	1.01524972092642	1.01892522406522	1.02866577197017	1.03806764860106	1.04143595249143	1.05481144492225	1.05606504616312	1.0642087586558	1.07453043140697	1.07149895390348	1.07814758608232	1.07715765498263	1.07616393609036	1.07372096532013	1.07227028138477	1.06451340521045	1.06822152326157	1.06095613214352	1.04283771412581	1.03555422078258	1.03661344109986	1.02992360081246	1.00884866807618	1.01004548472096	1.00300152591046	1.00368451012555	0.989301756778616	0.990017405091842	0.999110939449599	0.987454073305657	0.99012015887424	0.999433789256563	1.00213819447739	1.0019661316752	0.997721464691613	0.990287082718122	0.969800737554451	0.967897620902052	0.959918135045378	0.949830127431994	0.939588224347181	0.932734042134828	0.924286211956826	0.908091164457524	0.904124160918529	0.885218994758936	0.886515348377779	0.876040001234888	0.874969287303292	0.866400189895085	0.871109558085526	0.864311602294065	0.867507384249741	0.861255643501995	0.863703901883362	0.872236053156789	0.871202670915327	0.875254078397476	0.874270029824281	0.881488569026729	0.894398826577569	0.889452670498623	0.884994918303328	0.885994218456802	0.889097950671452	0.869905374732819	0.880739445807934	0.880139275074609	0.865131992275821	0.857631167183872
0.770527024955433	0.782226830753965	0.773691245448571	0.780079818496623	0.786805592305274	0.787536570754975	0.780084729955036	0.776137459802388	0.77876037156692	0.78388845781899	0.783721798078928	0.788726368362468	0.791476508235201	0.808173132669758	0.797050204320172	0.800424944580897	0.804232403986899	0.799420456746905	0.795013569900952	0.800014821734113	0.810802373502422	0.816808598048548	0.806668619919412	0.801594875520324	0.805072505244128	0.811227406932994	0.812296491819191	0.803468523723986	0.805694953562667	0.80736237881789	0.812227414069822	0.817740906828149	0.818971621660378	0.830607071000279	0.837094667773738	0.847066104766761	0.839916843625232	0.845743781074732	0.838618696405936	0.839538901669218	0.842494101987394	0.834751743344293	0.836587899388422	0.838712272854911	0.846055892367188	0.846924374164767	0.850141656257228	0.848204965856558	0.843761946474887	0.841597305266097	0.837563002790388	0.835298312096494	0.842274486875499	0.837127813888791	0.83710330137034	0.843571338429738	0.851694482932861	0.83518267610369	0.827692759225722	0.828215722278474	0.835952148483115	0.840779413773805	0.834328836626989	0.83092767273498	0.82939605577855	0.83774618023299	0.836893750213205	0.829035557491201	0.821002925608867	0.82593097368703	0.813255429720256	0.807410705135424	0.80199952254647	0.799635264097385	0.79518006083781	0.7994318161125	0.806075716907259	0.794039788453481	0.798772075119712	0.80401065001249	0.804755767827833	0.798155621360419	0.790208473621943	0.785400830018353	0.788365966425408	0.787291438598615	0.781960333706177	0.783314827232032	0.788135596317991	0.778222773896158	0.779094221586278	0.783169323841181	0.775661823938219	0.769134473944854	0.767494298648857	0.778081557743908	0.784144000985723	0.771907892191895	0.763518512017061	0.76290040936908	0.766843561857232	0.772383756459192	0.761753164419037	0.754696652450663	0.758623286513992	0.764055921535164	0.762346887314552	0.753306911590281	0.765371077391944	0.767895504555389	0.766465237769713	0.761193493522077	0.767991732949808	0.755045691427864	0.756535415652235	0.760454896621508	0.752998421891299	0.749178044748401	0.749754903306809	0.752830989467321	0.747843023714348	0.752117791772188	0.746021515671126	0.747207524608657	0.748260958509655	0.741128623406367	0.732891877715611	0.736356402830029	0.737744794482649	0.737943632968359	0.737520351480168	0.750166272666167	0.739568128205299	0.727717298007053	0.726568614410178	0.738628215893963	0.741415951034946	0.728643911611505	0.717079576561592	0.716058383158052	0.725295083558545	0.720448004212467	0.713920956782015	0.711783442867135	0.711283833899209	0.706013574457363	0.697239334060622	0.693747076458803	0.693187532432965	0.693360807140224	0.685580757522586	0.692688609634665	0.681760274945305	0.678020583972669	0.684646245326947	0.683862689099599	0.676413001346878	0.672603935148324	0.668257089653855	0.665234812702595	0.667160902795299	0.667575832379454	0.668990937072253	0.673352974009374	0.670892086233586	0.667058501310078	0.670655544957921	0.664177558023128	0.653593179257117	0.651509987986917	0.661473723396714	0.667674171314331	0.661111524722298	0.648940495182923	0.646069501664556	0.648785298222193	0.651385735205653	0.647545986481766	0.647581565628156	0.648917258541103
0.657492630726551	0.661470321475353	0.653975967187507	0.65286559399018	0.658437202767845	0.657637878822153	0.659734006183674	0.65514909791366	0.644196584961076	0.639389208133045	0.637001226671955	0.639761915291901	0.640947192985521	0.648724094753807	0.653207676090444	0.642118912802953	0.655936520042527	0.64287159858872	0.649727847515926	0.650412647182985	0.659822788347918	0.663206981683635	0.674318945986869	0.668077666233624	0.67418066198735	0.680837719486667	0.677601081879298	0.679023878826413	0.682334288553844	0.685590581317361	0.675428552765588	0.677090331234899	0.685140136285165	0.688747536849213	0.692651220700718	0.687835203489619	0.690536933542966	0.695155838903636	0.694069300223137	0.695212476297558	0.703430058656587	0.699016505012372	0.697148259733772	0.695375858572522	0.698305471726537	0.707335530433239	0.717754179260168	0.720230587222047	0.723350896271828	0.723600011028609	0.716150806871729	0.712141017809784	0.722117011262132	0.719403241893104	0.714529565185954	0.720900656157015	0.716563082182716	0.70670807941383	0.707629590631312	0.700347885979031	0.697236300132999	0.701262005503214	0.695258793189679	0.689682233424177	0.691798309912247	0.687197263915308	0.690160222234346	0.69017654116122	0.692945541236646	0.690732459786922	0.685937921527398	0.674177391276862	0.680252767840831	0.683075035196312	0.681856286206104	0.681454171574997	0.678040458393527	0.672173869887584	0.664289375382709	0.67682137998056	0.673106726900121	0.675584645241694	0.668891443154046	0.657853320692254	0.649254972981933	0.640592325625167	0.63869755634385	0.64436186493205	0.64660151667426	0.641979624912813	0.628552499455167	0.640934315947707	0.63191784841797	0.629478298376306	0.631723248326105	0.634533237150494	0.637961938390364	0.644330210103443	0.63772029144286	0.638050591793263	0.644332365507592	0.642999598352511	0.642406779243362	0.6367168699624	0.639098115828283	0.629881279409255	0.625300445258899	0.631199437674719	0.637694599767291	0.631924028202088	0.628510394636747	0.62172903119424	0.628094925623854	0.625036729737912	0.625809368830633	0.630472149812681	0.624500003219703	0.622014608776356	0.620896337245063	0.622658724009801	0.631939593028275	0.637136935638088	0.643868595258168	0.646436695231116	0.646411865531061	0.642299633359303	0.637618557237774	0.652396943600698	0.652459396527437	0.640631260371662	0.647565588003973	0.652554825935171	0.641257122231032	0.632029680144211	0.626100070056813	0.629896727330556	0.627595075006401	0.624974561686511	0.626521360853106	0.625169634047506	0.626823381466942	0.619659345664311	0.624937696487086	0.627531361360954	0.623152869008759	0.617249128406289	0.609192146738941	0.612391435439256	0.618282544202488	0.615413773756071	0.609028789054527	0.611490171722758	0.603067467137387	0.589926175293579	0.60077138267851	0.597961820675779	0.604031260668985	0.588140108192178	0.580398263071785	0.567024753548417	0.562865942565841	0.557947353083837	0.556762487305968	0.556049133263688	0.547139376652082	0.531265993976026	0.536922234785757	0.534800506604072	0.537178095108232	0.531083346733665	0.533099567720528	0.534029696093715	0.543040432996035	0.530572051332669	0.529087429427663	0.538402016475349	0.529646083159525	0.530005758683018	0.529377673047978	0.521342587853614
0.486149744953902	0.484965760221253	0.482209284633208	0.479305204683148	0.476325483788967	0.473330069329807	0.470972390599176	0.476881921983829	0.480780248914643	0.483931230260198	0.478791650138002	0.476374189325653	0.472002496083569	0.466156736741886	0.466163178824199	0.45324852643626	0.454122657200343	0.45297598572424	0.456567829794295	0.465375877644881	0.469098429242391	0.476223067030007	0.474592476471212	0.477462782270439	0.47452130174929	0.479824210659255	0.478933854658156	0.46919475046421	0.47253663485466	0.474338252803165	0.477407155223139	0.475659812934444	0.481321233256108	0.479629846670695	0.478245269775734	0.475944080164757	0.484417595246612	0.48079944621152	0.479833642003073	0.484487021255218	0.488956633162631	0.492802251824366	0.497298746911096	0.501009849914441	0.499910498462344	0.498764034092162	0.489551398210827	0.494551981190167	0.497848918877574	0.498615425010127	0.508427398616293	0.509669446351067	0.519331739932824	0.525814784343335	0.525301176073612	0.524231541184589	0.519866301692876	0.511935141823532	0.512120520341802	0.505106854146384	0.505869709755095	0.501769435497586	0.503516297312124	0.501381292936528	0.50415431498459	0.506486974594571	0.511636172049144	0.502023122726721	0.501373373985574	0.507143375625832	0.49610309257547	0.503071653039157	0.508771513132748	0.503870362491699	0.496835333740394	0.502954154532458	0.497737626726973	0.496356880854392	0.490769578054337	0.487827836700576	0.482414066682817	0.477813862651632	0.482887599224523	0.485900016533075	0.486663762234263	0.482622020579263	0.478132036237927	0.469196982225526	0.463428049217448	0.462950633982903	0.448131849417439	0.445985229675657	0.442895695204308	0.448314598461654	0.450204855754253	0.454097195636737	0.458078076048098	0.456828124073285	0.462457824805156	0.459320645134071	0.457598007927348	0.45465936681332	0.444951506753391	0.445769088548541	0.453037656835977	0.454702020766078	0.449072999778152	0.451697456925547	0.445357878399166	0.440048480146653	0.435721115715625	0.441153722276082	0.43824016469238	0.440001072730467	0.439806816291632	0.44657651568329	0.447562808470019	0.450810666983447	0.451726130973234	0.448665771030482	0.445088401449061	0.439772644024182	0.439473235929168	0.445579927151001	0.445575324318129	0.45547911704864	0.458974036579436	0.459786176170386	0.470628282411868	0.470355985599512	0.464342517687888	0.463650104375783	0.449492319295314	0.452724700515405	0.444290904575292	0.444039365141939	0.441274521513348	0.44482511662172	0.448001298216752	0.443592741818112	0.445678932728525	0.445848308137696	0.439481836614098	0.436566744168549	0.439100986528563	0.432072483850427	0.438263418815331	0.439715484801652	0.435199497988039	0.432584947438052	0.434482832524579	0.427353237657857	0.430140097697629	0.417943842599078	0.419825343219655	0.413241761822991	0.415582580471168	0.421242007933931	0.420225314083959	0.418678265658471	0.412354663783898	0.411570981238301	0.400716077313909	0.394631971566218	0.390745763789302	0.380344448157369	0.377558328611934	0.379519885671567	0.381695090846964	0.386772215663569	0.388417395963096	0.395886867529364	0.393125544351134	0.395541189201209	0.38703791290386	0.385095331757589	0.38514827191619	0.37260872811752	0.375175022830379	0.374462519036059
0.387203798689994	0.390408106583176	0.38687135715159	0.381932980338594	0.381111644529793	0.382650130944964	0.383490200245278	0.375061660239657	0.374083315042692	0.377088434478417	0.38203228116568	0.385041790174183	0.385801967824625	0.389468204903127	0.383320708437658	0.376229500641128	0.377141424317147	0.377998526237137	0.373629135575429	0.373442501127067	0.378317747985658	0.373093789856575	0.375548893948013	0.372737665281383	0.376225782614966	0.374180985889557	0.367695431069018	0.369117541114686	0.368837650194395	0.376121750779084	0.374105117264623	0.372711669199936	0.37633656554578	0.377170281995357	0.375115011046957	0.369601506430991	0.377472335448527	0.380362300871836	0.378032891190766	0.379961701947016	0.384948290040624	0.389387042648622	0.392061562056003	0.392480119507429	0.399566969712301	0.403697752473007	0.402694854383059	0.401206669809965	0.39779189959311	0.396312376835379	0.39458934636693	0.39775415380265	0.403995923117379	0.408651502822672	0.406951836575487	0.406762751282403	0.416037650403655	0.411270278383908	0.413557373048376	0.416646821803253	0.415382459535316	0.417652210772111	0.416663393638531	0.419418939338326	0.422309146313842	0.419204025979039	0.418625851945058	0.414474750034208	0.416593545421563	0.415051330712249	0.411904536159251	0.413584357351027	0.416312321713293	0.414845694018536	0.410203106231832	0.409996394500235	0.411690550450001	0.403869040669047	0.401468834279502	0.395262633479459	0.397904873732887	0.395656035226266	0.385284593955003	0.386854026939164	0.386846679371557	0.39061638048073	0.393031294886816	0.391257011993832	0.391457780038714	0.386557265239191	0.380254449815531	0.374523024847106	0.37541792700584	0.368775010536558	0.364267673172733	0.370109027568607	0.36357711724378	0.364152253642635	0.362055716234816	0.361566815182514	0.361143154639686	0.352165130246216	0.355439691179102	0.357011098077614	0.35940882911704	0.356430839235245	0.355459279916331	0.357329772381511	0.354516145803179	0.354949268912507	0.351352710855979	0.355064234791874	0.355890187941902	0.356138909893287	0.355042925474311	0.358557716027033	0.360801185287084	0.361614054749905	0.360994863797502	0.37000693471997	0.374530793548803	0.368228799436223	0.36887817547475	0.363457295664273	0.367673265721612	0.361919360448418	0.36670305299971	0.374518035722841	0.377507883702714	0.377968637716124	0.380334719065613	0.37993562015197	0.377513078306204	0.377808210239639	0.381154378393968	0.374353620098694	0.380782284266964	0.377274540578256	0.384072073086373	0.382740606791314	0.378683031160088	0.376104498744338	0.372634187641421	0.374802563403568	0.374060371222161	0.374211682777827	0.372545716325394	0.37231008855014	0.366852586761873	0.360597129940306	0.357686967883283	0.360666049992204	0.355421739059007	0.353013749437045	0.345244065695591	0.340729599410906	0.338751870488375	0.328348897602139	0.332858532116339	0.330216226439393	0.331104524120949	0.33535523054657	0.329123379244347	0.328096869186173	0.323147742856245	0.31471419276752	0.31304272873068	0.309794055322334	0.303934857559519	0.303167012527224	0.304963588570326	0.297826525237535	0.300382867839467	0.295445344594166	0.295136202872765	0.293428241330129	0.288725695631996	0.28595912714073	0.290529357617279	0.299140688668689
0.300387702705588	0.302401582938865	0.312858166706893	0.316420016270826	0.309721124744304	0.30528527950698	0.301749941026981	0.306633497435372	0.307507059041347	0.308421867304463	0.307470257170786	0.303872213485237	0.30772577917477	0.309988091038116	0.307459078902534	0.312744872383025	0.302385357712505	0.307049603781865	0.316173703271408	0.320529884499249	0.32215318505927	0.32240701611047	0.322319124343427	0.326154229807612	0.320846227194859	0.318584177542049	0.325953118914429	0.319452451435357	0.317555737351761	0.325176926918141	0.32894666829994	0.333033050829135	0.333044790793693	0.33522221405338	0.342490961068481	0.344690696989628	0.34022064026913	0.342580576294005	0.340385567445666	0.333655681426401	0.328047255037914	0.331669262844698	0.33360124143231	0.342433379349991	0.338024069835962	0.336629954224353	0.336463650088727	0.341350929956276	0.343972633191614	0.342950869361316	0.341462973972497	0.342400760765589	0.343441299776422	0.34345353506432	0.352746527350559	0.344149019061076	0.340885922806241	0.334460719321105	0.334547616313831	0.338282842346732	0.334821265856064	0.332807742823253	0.340158682135978	0.333460526098399	0.3332026426269	0.339335310700873	0.338645327436136	0.331966027058785	0.325274191772485	0.322088278620119	0.322148460382622	0.323968491253779	0.310493719166805	0.31614124701545	0.311627812463936	0.318797384840934	0.318772423489976	0.327699625298637	0.331634448268883	0.324447319837699	0.318292782355095	0.316276120955977	0.321285581239575	0.31696651771675	0.319202416635652	0.31335644975245	0.30904481972227	0.312584923286165	0.312859718284767	0.310524944227602	0.309600884372474	0.301372273004288	0.301442730085121	0.312569674308869	0.311914637161404	0.313431523080527	0.314432298613339	0.31370086308203	0.313019078113919	0.310509252388851	0.305491594958193	0.310189987536264	0.306384087201039	0.302704718457332	0.30640194906513	0.308001615577357	0.315200940020305	0.316459983537281	0.314552069039365	0.317385845916895	0.319160764274263	0.313051352460323	0.31376718578947	0.309034328397756	0.302952489970465	0.297747400238028	0.300787998988099	0.303771121633882	0.307606819053168	0.305316054885414	0.303745640174944	0.302826549830164	0.302881867686648	0.312067921224225	0.309679472843364	0.305535412558022	0.309012290805876	0.306822710525676	0.303321606702605	0.317686659355274	0.312511788401969	0.302336961220891	0.301251985909577	0.298706149487367	0.300728561785824	0.297451024402296	0.300968610672693	0.301202448881579	0.297618853709968	0.296758656634986	0.302241594036138	0.303457636415645	0.29935883630461	0.292358620789729	0.289092526474126	0.289689175034038	0.288938657128006	0.280684351821133	0.286950211024477	0.286713383976605	0.292060512879471	0.291076280729024	0.299037435184904	0.302236577639016	0.298127179769279	0.290389258612128	0.287012079421696	0.292193008552355	0.288420534938964	0.289817760836344	0.284256292013428	0.280236613230861	0.284360702616795	0.283488998278601	0.277867468663687	0.280077851411982	0.269616278279166	0.270181553594234	0.27608147817924	0.279729726688538	0.281569785186932	0.281739928859934	0.277999937263447	0.277238393883854	0.277170562480639	0.274712085976351	0.276927597445144	0.273928553373676	0.268716183628842	0.272121104354174
0.237779337863327	0.239040860145372	0.236881559239302	0.239080653705167	0.240953404420873	0.236912719659361	0.238427047230846	0.239695961100429	0.24162235333859	0.237451796640697	0.234736540179509	0.238159905796105	0.237234934563591	0.238273586751497	0.239070326078253	0.237757409674241	0.23649543858217	0.235125793163691	0.236568874449347	0.234315302023535	0.233874425008271	0.234845215910601	0.234751329819644	0.23523547530499	0.232518447107005	0.230935158038612	0.23271238817451	0.23327085674342	0.230934224573366	0.234031574445196	0.237313298257709	0.236689076276101	0.235226576535107	0.237500332790303	0.239567013525811	0.240884830201753	0.239572155973193	0.247646058922263	0.249972323631663	0.244861479116641	0.247342414490914	0.249130720761189	0.246093443861275	0.252519510253449	0.249567937551356	0.248288825737261	0.25108892498286	0.25360500867476	0.252691201084851	0.252448841588718	0.251590810889315	0.252524268014928	0.254016134369078	0.255095524819222	0.261225357793147	0.260312732984508	0.260189595031917	0.26122716597025	0.26025920673256	0.258663213838822	0.263525661878522	0.261630603931021	0.260419227112608	0.263339177084064	0.262037174107914	0.263449199642398	0.26201838623225	0.256129993537744	0.258269370704709	0.260178740357667	0.26007928885848	0.257655804638677	0.254127894791475	0.251996202162535	0.249667898494295	0.24392401528952	0.246818737744289	0.245740217865431	0.247126617675261	0.245554666883005	0.244631041061558	0.243718124258865	0.247414282502626	0.24543937398485	0.242921770342087	0.238360761034531	0.240967618403785	0.243086682652449	0.24337109340682	0.242246273643524	0.239957550014785	0.237945414836072	0.233937197487858	0.232065567385602	0.228775565294658	0.225656988152955	0.22573147880671	0.22410127177456	0.221341041638785	0.221171798895037	0.21795484124373	0.215536474226626	0.219102344221535	0.217756720548106	0.217969752479533	0.219372814529052	0.21925260682709	0.217216984860467	0.219114542181771	0.218095034198743	0.22247797201108	0.224715182210865	0.228991335221467	0.230331967495398	0.226376671694618	0.227024828347693	0.226758120048083	0.224965163968915	0.228118041221481	0.224657052525095	0.223453531857056	0.224796108913454	0.225426698707758	0.223894264402347	0.223581112201814	0.220397186426016	0.218840353634957	0.218917191266685	0.222752420113004	0.22465464186367	0.228407558674556	0.227137508089607	0.231261094108775	0.230911111235241	0.230334314899507	0.235568098396156	0.229713200262696	0.228347128932772	0.231215360580967	0.228624362065836	0.228308002790903	0.230309698178944	0.225050073592565	0.225895471621843	0.22678209579305	0.222982708916052	0.22258860980667	0.217250335979891	0.21521331126712	0.209165451232093	0.205429245328317	0.205197243541521	0.202882422617132	0.203219071457981	0.204708110847965	0.203214568050543	0.202036558827325	0.206575360726373	0.203695366768371	0.20034401165306	0.200545858749672	0.20233942307929	0.201661924081102	0.204689682569748	0.204030340379739	0.203176190028242	0.198753692324803	0.196190286461623	0.194794867547082	0.190307463766714	0.188646871907349	0.186320530333697	0.186553879605559	0.187089510767613	0.188812701354858	0.186091165036868	0.184156649028567	0.185096796121382	0.184936058308973	0.185501652093523
0.176373031398347	0.17750371062174	0.174113348206515	0.174799717948797	0.177503119991462	0.173997047089343	0.177119158872752	0.176557806175424	0.173024219339623	0.170514901157986	0.17258981664041	0.167514935048362	0.169429666421791	0.170275058609469	0.170617250884005	0.171749537370678	0.171883929323275	0.177948572636403	0.176446032968783	0.181386471743681	0.182753712861009	0.182151119495386	0.180065485399336	0.177451481181066	0.173622018567141	0.171136528759128	0.172915335103144	0.17559074357551	0.176749155841093	0.18000547218641	0.178840723724207	0.184643470689189	0.187916375339696	0.190039070427477	0.191062033035515	0.192345875124635	0.191212957395572	0.192086931756284	0.191060718015244	0.189020647884936	0.190203959719352	0.191849889775008	0.189705079902298	0.192585282461832	0.192138402543547	0.190093817600323	0.19708962046129	0.19596448344957	0.198141638298141	0.199266513677484	0.198870484777914	0.19835430524355	0.199308053243115	0.198156530047178	0.198602455819668	0.197050312516091	0.194747539830246	0.190629930794897	0.192171547209207	0.19130896718875	0.194261451134143	0.199824199247302	0.201074350094828	0.200670377507642	0.199796267380908	0.19768393719831	0.194196912200842	0.192184331206203	0.190726825915524	0.190175873565602	0.183779067255131	0.181407447189068	0.180996663772343	0.182588458524598	0.181699759177782	0.184039005470052	0.181590793604971	0.182571574471755	0.181746737237072	0.184921922489981	0.181909168660394	0.181346073104825	0.182890527094743	0.179064108480798	0.176494450366973	0.174886314741982	0.17126663422651	0.170171197177304	0.172560396660021	0.171937732147844	0.172106772262864	0.171562748633148	0.172901112771279	0.172405070828639	0.174475054763772	0.174388316157904	0.174605851258865	0.174149382412802	0.167274164202533	0.166772834755523	0.161069009339078	0.163645891519454	0.164463255922839	0.164330865966327	0.166785038122594	0.167345276990018	0.172349928772978	0.171513516156767	0.175061252218698	0.172886000057959	0.173648090510191	0.173633949018778	0.172939746465534	0.172903552041903	0.171529306484513	0.172115685114671	0.172891376037619	0.169444694492581	0.171284689841658	0.170955027570507	0.168931425286099	0.176568176667025	0.174042053848598	0.177647452872482	0.17992145439866	0.177348456380796	0.179370542738815	0.178620768453043	0.178743271782741	0.178390548855171	0.177474339304806	0.176384908413558	0.174307191031238	0.173314290659595	0.172778008435283	0.173080838963957	0.17752186340722	0.180459033380174	0.181856617885434	0.176922722252973	0.18120403269568	0.176873258350783	0.173487022278544	0.172443562654942	0.170396505376927	0.167070912953985	0.166361905980113	0.16545249105512	0.16422546973149	0.163137544846556	0.163382686154244	0.159658818210645	0.16084922247209	0.160839770306043	0.161434729438399	0.160108532064549	0.159447520018453	0.159721679110197	0.156148086767306	0.152622366842251	0.149494742599662	0.148506585173446	0.145489366731382	0.146709100047843	0.147674280381409	0.145838444195016	0.143149650711567	0.146794084328731	0.145543585393589	0.146049359342304	0.146953761109103	0.146998547762004	0.147470677905624	0.141153871897404	0.138615742649902	0.134594409541602	0.137276975081976	0.134292542191112	0.134608612920807	0.137764459452513
0.11329935818634	0.114957422705544	0.115887490161021	0.114998126028799	0.114275835333659	0.118024007027268	0.119324081125594	0.120318197712711	0.119026741919833	0.11988395751749	0.120826215251744	0.121245654234114	0.122330695407181	0.124483540026218	0.125628552416011	0.124440143726236	0.127314197571842	0.130524762953644	0.134024486053983	0.130230831900364	0.13027541081786	0.125393229825883	0.123249270668614	0.12491959415014	0.127399962126149	0.126298968270425	0.123855140457819	0.124226957123643	0.121608442809047	0.12252552945667	0.126448260733817	0.127171334171809	0.126102718059088	0.128166299871825	0.129031590785021	0.132020013217194	0.131620314425814	0.132223025055904	0.137605017703481	0.136065192436263	0.13488694998515	0.138858443357137	0.134678977121814	0.133951770295687	0.133989115787721	0.132048311089968	0.133082792880745	0.135006474018683	0.131911891386725	0.132204289015576	0.129223292720927	0.127188555901523	0.129687605532954	0.127907899189615	0.124365668582529	0.122433985516999	0.119944747321612	0.123497551860639	0.126559560814477	0.127458118266032	0.125863643704981	0.125704245580185	0.126734828788401	0.127072864128341	0.129467628334123	0.13066347441253	0.131319206658335	0.130868043183726	0.126116315418161	0.127372431188565	0.127504960306692	0.125858840751152	0.123307798215505	0.12111296082846	0.119667707391985	0.118747944068093	0.116274966836706	0.117081640341469	0.116831936072667	0.115539713730597	0.119548698609656	0.120938661240486	0.120259939163256	0.120641322034725	0.118225680370371	0.119103128875146	0.121551376792973	0.120363094571928	0.120971397660257	0.121820505007169	0.120909722960008	0.122342089337867	0.127533338617449	0.126220233577653	0.126674082257621	0.124232066716919	0.122509205868416	0.118307904875714	0.117730110153236	0.117281513840149	0.116190772293256	0.115552920702918	0.114821139899953	0.113087931737979	0.115091609409909	0.115501877281379	0.117243301980921	0.115913807535965	0.117926562756636	0.119062846865	0.118561808333242	0.119888453929126	0.118338869993866	0.121188015040722	0.119396799610969	0.118268280624143	0.120278905798726	0.117649652657033	0.116178582890862	0.116060902642607	0.115018986625186	0.115302265317977	0.118708414671603	0.11625520862484	0.116994771734728	0.115271754910319	0.113250082798091	0.1143359071804	0.114095813436155	0.109248048146277	0.109185957197637	0.105866360458795	0.107852999177402	0.108524114112679	0.113950336439733	0.111728599432087	0.114875740135835	0.115221475679191	0.117230017698979	0.115966036349962	0.115837343057894	0.114596704792791	0.112474543492318	0.108379695443192	0.108782171592889	0.111227167233134	0.109581047677594	0.105925470075655	0.107353924953192	0.106832661436511	0.105134427170534	0.10468089164466	0.104514135667164	0.102709048470141	0.103873967600761	0.107359726968783	0.107566465255503	0.106887743178274	0.107555329559162	0.102808055285899	0.10457576508525	0.104072576404086	0.105713155619905	0.105906331499991	0.106219134334343	0.104666975701986	0.107622944416677	0.111381410707941	0.111331726328911	0.109206125426502	0.107876675890722	0.105487373300857	0.103221838903526	0.103697962256699	0.101657388131652	0.101229402389462	0.101871823686782	0.101982962474801	0.10189212614347	0.103831433788649
0.114174615856449	0.112845339033533	0.115276232291395	0.114170308913209	0.113864183007143	0.114744783861308	0.11221229763749	0.112195243943525	0.109748046409141	0.111092924361678	0.11035698338405	0.110743488102101	0.111917603963438	0.112289591201801	0.109913345049395	0.107981982898839	0.110658038860534	0.109299017383288	0.10611440449278	0.104592902206831	0.103417985531469	0.10047117383547	0.0998989187912574	0.10337865730006	0.103540807896482	0.10277530665145	0.0999461803911411	0.100359464606571	0.0988682162648939	0.0979357779054184	0.0980699747295522	0.099442302437933	0.0963420242541989	0.0993355357036773	0.0967641851427152	0.0948466864797876	0.095794268439361	0.0986877929234317	0.100351228915231	0.0991258966933175	0.101160002839687	0.0994798916425269	0.10029231747554	0.100040609225688	0.10459768234537	0.104779150629976	0.104186357777192	0.105255284404299	0.106321366802756	0.106362331558694	0.10504977160477	0.107453654596469	0.107087784793254	0.108722251167722	0.107631310348446	0.108980911873004	0.109202493814799	0.113216466162529	0.114352108277648	0.116622987874808	0.11597249287913	0.112557526975626	0.1146526602256	0.114841866800139	0.116406859759032	0.118680447873698	0.118610323602386	0.121411885946866	0.117485512006406	0.117893074769336	0.118944393552615	0.117583163122966	0.122283196250966	0.121611355647282	0.120425887805408	0.11807760414875	0.117180880573821	0.119129657059051	0.115704886373674	0.116842532454767	0.117229906432414	0.113036597359498	0.112130980828095	0.110444131890725	0.10906786229573	0.108084191841836	0.108365343593649	0.108758882730017	0.109022664269948	0.106920785177459	0.105823174499451	0.106736113884479	0.106210701150562	0.102918812546419	0.100373346676086	0.0985005513627392	0.0977545380782212	0.0959402415927486	0.0990843776384077	0.099143327128266	0.0972953820496273	0.0960710401252395	0.0939584900404305	0.0936668517489361	0.0909528076359214	0.0902406128778908	0.0929566082945796	0.0908833529777042	0.0946717286895465	0.0905105525997678	0.0899747048639458	0.0897838450662641	0.0926747048899305	0.0928236086976185	0.0924320279482532	0.0916755748098322	0.092935999444779	0.0912248541292112	0.0929245244224007	0.0954920383844492	0.0962763168699013	0.0971606308234498	0.0943202084211662	0.0941205311914882	0.093377053553014	0.0930467815334125	0.0939873479831329	0.0947262584730605	0.096560264919489	0.0937529360459402	0.0978969699198837	0.0988041709252269	0.0995555788462501	0.101547800689412	0.102984928814025	0.102477647472639	0.0983778339042746	0.100463447310975	0.101870160272277	0.105054616179182	0.103656218745403	0.104443993685132	0.105542601063914	0.103284626575509	0.102347933141813	0.102060974311157	0.0997798072104463	0.102642665046196	0.104992803184648	0.10285673411601	0.101193298124212	0.0984714977160801	0.10007359763033	0.0984085461140728	0.0980674347684026	0.0970526845546611	0.0937406939216787	0.0924298050601091	0.0900581084578794	0.090273383316012	0.0922364029843392	0.092329132048864	0.0907162502027288	0.0908300551953437	0.0903261133177852	0.0879001397014906	0.0877642138588689	0.0860762239841845	0.0829323228228102	0.0827226877428842	0.0803565032871098	0.0789691134173953	0.078510104562286	0.0806276067911527	0.0807309021634808	0.0787228154604298	0.0767515349225425	0.0752330030937054	0.0756726299199112	0.0726692252951661
0.0754949004137379	0.074944133001192	0.0745884570456143	0.0778033156416263	0.0783846042120101	0.0780726975699503	0.0795514301638521	0.0796209627544347	0.0797405007570153	0.0762850591480925	0.076545670853185	0.0763575819280108	0.0760175190652549	0.0781208103605111	0.0793903583734675	0.0803310905714999	0.0795422429522633	0.0789160667832069	0.0795802248808023	0.0776293163294695	0.0773668623311325	0.0761703250141669	0.0766226327234587	0.0750515072120166	0.0751673180784867	0.0735190395609352	0.0732426851854226	0.0716351881976394	0.0715125496885416	0.0710040625954336	0.0739522194088508	0.0754146712442216	0.0754610344737163	0.0754999413825424	0.0753319749924625	0.0765043452931399	0.0787760903346963	0.0785860473508475	0.079008216518631	0.080810110627733	0.0791555703067673	0.0793479451941186	0.077846719952673	0.0785381177997736	0.0768190020295485	0.076985907120493	0.0775909238650107	0.08060558998256	0.0799207423177002	0.0815745075500785	0.0795720844858014	0.0778039274240342	0.0767095921644768	0.0744189084066854	0.0766890812124199	0.0778520517307495	0.0783579735421426	0.0791305122615318	0.0797840769608247	0.0808303334553575	0.0802131092046362	0.0810564094746524	0.0817605743903218	0.082885061390232	0.0836366631173046	0.0836086313233148	0.0852571160738428	0.0852262384278024	0.0829582316056563	0.0814376300785313	0.0816389992667145	0.0792082938864512	0.080167571292131	0.0774748523617037	0.0756536590027709	0.0778822123340074	0.076150372648756	0.0758100990597473	0.0774636443995011	0.0781050209846975	0.0777330263278251	0.0781835832613424	0.0790889166249583	0.0794880295547585	0.0772074515090957	0.0763853051991854	0.0761972162740112	0.0744444811874207	0.076798123678012	0.0777270729459723	0.0795500378995684	0.078366846432797	0.0763405735219893	0.0774824360003327	0.0767147517931099	0.0751966967812884	0.0742095250844701	0.0748031601378462	0.0723704914381048	0.071823546499872	0.0695746031262572	0.0682493835230956	0.0666418865353125	0.0658344003613549	0.0647633759420691	0.0665679547095066	0.0676727593494116	0.067222946467408	0.0668646479371502	0.0673649439518336	0.0684846123735086	0.0708090592940674	0.0698121600464628	0.0702343292142463	0.0706542156552157	0.0692296546960483	0.0703419662544613	0.0696744924855634	0.0688472911952565	0.0687767820438168	0.0683852005110018	0.0673853348751708	0.0700399256798805	0.0718309895573094	0.0722930605543801	0.0706093951353766	0.0682599495032255	0.0660528057791906	0.0670145240135835	0.0689610180306611	0.0689236217333256	0.0679096509908229	0.0699031227511159	0.0706738504483198	0.0699797719841209	0.0708746414934442	0.0722300296661353	0.0723603077367344	0.0738748399208453	0.0728118374405677	0.0745067749226979	0.0762008051142833	0.076393908409729	0.0740677518958287	0.0731678373866357	0.0733772863325515	0.0714421804262397	0.0738765858896637	0.0711569717504445	0.0697088638685311	0.0686049398012568	0.0681392363512489	0.0691510093794803	0.0682875825304467	0.0689289591156431	0.0676370277877089	0.0668622915903454	0.0669867963116169	0.0672040257931922	0.0649034255856607	0.0653868139585421	0.0645138773685082	0.063541970924262	0.0661417677517481	0.0673234650659271	0.0670800888562558	0.0651892214691294	0.06224301188726	0.0640055613835354	0.0613918970274997	0.0612781783515587	0.0606974604066434	0.0609257902627395	0.0587921274251195	0.0591653830993839	0.057650850915273	0.0568700222729286	0.0554946169204181	0.0541373497460016	0.0529764367942119
0.0521218920173016	0.0527968180929702	0.0527389154074707	0.0523768681729647	0.052428088882963	0.0527835443489833	0.0509130064511577	0.051328659995388	0.054207901344723	0.0540693074857305	0.0567484002363383	0.0553929157550628	0.0557113157911498	0.0553392581108394	0.0572255807216063	0.0588310785665703	0.0600847937312019	0.0596322031174962	0.059951015163512	0.0596814408868681	0.0612820616214989	0.0612408897489354	0.0610879693914079	0.0622428107927991	0.0657039342413498	0.0657039342413498	0.0645062940045172	0.0651405054051044	0.0649223460906921	0.0671120594711131	0.0659423734432201	0.0667069415208399	0.0644467903018845	0.0639208567243188	0.0663672288329947	0.0647795439268945	0.0664770307852514	0.0670119906602008	0.0665791504689309	0.0658237437001231	0.0663949672700317	0.0656848697617368	0.0667691197363574	0.0676890564074192	0.0674927389722525	0.0653447627406177	0.0653247405787489	0.0628042638490024	0.0645421924049487	0.0626731417469132	0.0646482045579467	0.0617108947992587	0.0609576897738007	0.0583579490683996	0.058990396990499	0.0587687011531899	0.0589809619038966	0.0576499154459098	0.0572018530506661	0.0583117743364053	0.0573098532925416	0.0550898204798963	0.0538487298439909	0.0525320381330597	0.0542126186082758	0.0540859270338313	0.0531884674150643	0.0518199175962956	0.052368249200861	0.0525060513223756	0.052753756896416	0.0541360364791098	0.053185435252346	0.0522841842033185	0.0516040834351296	0.0521218920173016	0.0526388003901917	0.0521382505514075	0.0523768681729647	0.0517204129626079	0.0520279037273597	0.0513750774482285	0.0514925632169446	0.0533176400501471	0.0534482403117841	0.0558581389417623	0.0534125344654611	0.0542942245344927	0.051874674208382	0.0538106621682852	0.0549930747442193	0.0568881664940473	0.0579396318124156	0.0552129605334547	0.0568506722273485	0.0572516829117966	0.0572105110392331	0.0565477552345302	0.0586046311122899	0.0598880739349248	0.0611291645708303	0.058877297926005	0.0600371490432035	0.0589429291878268	0.0605866853775048	0.0586542478710192	0.061368901203171	0.0584673733990192	0.0562100099523453	0.0577057808342573	0.0584507048230536	0.0602377338782375	0.0583505426614634	0.0590449992203969	0.0588205728485046	0.0586841204980581	0.0579740229897633	0.0586787255167777	0.0596293267435416	0.0601336098703731	0.058144629815614	0.0575239427976819	0.0556041309239987	0.0563118068443538	0.0561313799220118	0.0582156588655415	0.0550895125119065	0.0559248041607244	0.0535825469298602	0.0531050735662204	0.0519445732594593	0.0534195545049904	0.0516557672589039	0.0512193740545588	0.053413122742202	0.0517484458936353	0.0500728040418073	0.0488317134059019	0.0487561222598463	0.0497054376173622	0.0487217533452128	0.049576098209321	0.04937575493783	0.0487558799951177	0.0485919767735611	0.0500659612960251	0.049850303663788	0.0496073783573792	0.0487061273083517	0.0489766277669267	0.0485438351223348	0.0477782729115202	0.0478180621124893	0.0476378983262082	0.0464707292688817	0.0464227645676132	0.0453078672914111	0.0459308951368613	0.0483331879083325	0.0490596636672448	0.0502529997820158	0.0478073953057145	0.0472194733062873	0.0447236269230619	0.0459947893799742	0.0483077244210157	0.0482863452015091	0.0485117116883888	0.0477416617060239	0.0490135148222828	0.0491596970664338	0.0479165496055546	0.0472537938008516	0.049134060973085	0.049526260002278	0.0507673506381834	0.0477086277296023	0.048305941520623	0.0485954225530764	0.0481766411452381
0.038185835369924	0.0398482629820424	0.0402535353122085	0.0411822023961907	0.0403320745581773	0.0381106551608475	0.0386649025640702	0.0387082905202523	0.0404199115526042	0.0408670770336404	0.0411980498408419	0.042728426659829	0.0436865934766776	0.0437796296903203	0.0459849600495066	0.0465856249055698	0.0471135867535806	0.0478944153959249	0.0485645034878439	0.0488564764004935	0.0493498655429213	0.0506122480685631	0.0472860555734408	0.0464121166663036	0.0455670436709484	0.0453806456923775	0.0463954075660691	0.0469860401871655	0.047651005969707	0.0488456890817422	0.0494463539378054	0.0511906469550496	0.0483762659304902	0.0493432638186583	0.0488960983376221	0.0469753797372492	0.0454050294283338	0.0469811765857644	0.046791127291078	0.0454578676042972	0.0449934257543285	0.0460447479518006	0.0467600431714966	0.0480140604723703	0.0481446607340073	0.0463896517454733	0.0459424862644371	0.0454326508172617	0.0456823064139995	0.0440751966078132	0.0442454278591836	0.0415802438701945	0.0416872549344863	0.0412381323454941	0.0403784644441312	0.0387437001736154	0.0404396414699125	0.0396542794148351	0.0383918968891932	0.0383918968891932	0.0417180893843156	0.0411967182727038	0.0423193668754794	0.042672898038615	0.0416086674134652	0.0406454630676943	0.0406682913231896	0.0395577910199509	0.0384762538074097	0.037128650337847	0.0398210227635103	0.0401080466201342	0.0401080466201342	0.0420287652205071	0.0426436553899239	0.0414022813540599	0.0418575622006581	0.0432810458015474	0.0434495219511824	0.0425266562178561	0.0403052368205263	0.0402588193676858	0.0406884885559044	0.0415656279846341	0.0420127934656703	0.0416810104681688	0.0416315967309115	0.0436983855655683	0.0438947703684712	0.0449117193179343	0.0455123841739975	0.0453989694368119	0.0468211746643526	0.0474912627562716	0.0467599976385714	0.0483522159574046	0.0488077422192906	0.0454815497241682	0.0441553254741121	0.0443438263920597	0.043576139843105	0.0439060540519369	0.0444258937162694	0.0458465001204345	0.0465313477852942	0.0480606294963712	0.0487233853010741	0.0465717600812176	0.0467579293270415	0.0470915924883496	0.0451708738879767	0.0436005235790613	0.0451766707364919	0.0444422304809882	0.0432979062890044	0.0428031565564321	0.0422342856013306	0.0450680109806176	0.0454213583689779	0.0448206935129146	0.0441145497520296	0.0436673842709934	0.043157548823818	0.0421894928018614	0.0398234914331879	0.0414120879985565	0.0382153694864401	0.0397057225655954	0.0391050577095321	0.0383969320752403	0.0367621678047245	0.0377268439833213	0.0376727470459442	0.0357026885999472	0.0364103645203023	0.0392097270533434	0.0370737758268396	0.0382371361587484	0.0393837070652985	0.0383194764401487	0.0368118811335605	0.0361270334687008	0.0350165331654621	0.0339349959529208	0.0332287690685546	0.0352797649090215	0.0351196232846092	0.0361874757835774	0.0367318667443947	0.0373467569138116	0.0366152183251229	0.0370967867124037	0.037683246459992	0.0369071464932064	0.0371726621696033	0.0349512427722735	0.0356360904371332	0.0354030038206488	0.0369428990540814	0.0374527345012568	0.0370731870536507	0.0379743745431573	0.0384057144861905	0.0398048073926174	0.0394701444308685	0.0400708092869318	0.0401375583360272	0.0412116757093232	0.0405587617185666	0.0398274966008664	0.0407201343695793	0.0413818520391579	0.0393633181484611	0.0372562652560606	0.038375571363669	0.0371689124423063	0.0365482254243743	0.0377624325968405	0.0392029208833238	0.0398035857393871
0.0375160863534133	0.0363658471158648	0.035680999451005	0.0355043039275655	0.035550721380406	0.034970674476745	0.0339028219777767	0.0335524536863193	0.0350159298762228	0.0353961312493294	0.0359828414023851	0.0354847295465805	0.0350122770594332	0.0341854812403666	0.0324141638288366	0.0326889822091834	0.0331149465068943	0.0336148812601837	0.0339661006864978	0.0346558348008444	0.0359599671907438	0.0362475693846661	0.0367058432293247	0.0342322265972212	0.0337547532335814	0.0349399025175762	0.0342813842139138	0.036030375081758	0.0365402105289334	0.0389507977022121	0.0388148718595903	0.0380836067418901	0.0367142131519564	0.0373225249042995	0.0386800086775212	0.0386800086775212	0.0380172528728183	0.0391712408813529	0.0390514737445749	0.0412681643129821	0.0424122619328777	0.041727414268018	0.0412338313341413	0.0427082091998747	0.0425681684216203	0.0422263046166556	0.0422157883193606	0.0398696090199148	0.0412201586869218	0.0412371532018276	0.0430713618411083	0.0439661736262786	0.0444193130900073	0.0453555897471483	0.0449854927176187	0.0452924142280851	0.0435437847670694	0.0442514606874245	0.0432222634297805	0.0420590612475395	0.0416570612981268	0.0446750688910476	0.0439673929706926	0.0438450826320107	0.0423500904444296	0.0423670849593354	0.04055716264212	0.0394296678239755	0.0408236887463787	0.0408236887463787	0.0409640835660373	0.0407898241369254	0.0402272868107476	0.0402272868107476	0.039508549117043	0.0397360546069159	0.0378619078430757	0.0373565767436904	0.0364950335553911	0.0364950335553911	0.0355715740566188	0.0355783992704621	0.0357548609410859	0.0352385472762996	0.0366838878695673	0.0381159392015467	0.0372374014983416	0.036255113564019	0.0345083810738906	0.0327370636623605	0.0330118820427074	0.0309072380589091	0.0322500381798368	0.032156181123986	0.0333403483189389	0.0333403483189389	0.034970210432646	0.0351009962356888	0.0325727509546509	0.0324392667516759	0.0343092637005305	0.0346973276011165	0.0347148885998525	0.0357872613732057	0.0375614763263246	0.0374993853776848	0.0367681202599846	0.0360835743349107	0.0369881541152617	0.0368019848694379	0.0373645221956158	0.0367017663909128	0.0364121699524001	0.0365762473380672	0.0384870015238725	0.0391718491887322	0.0393485447121718	0.038854961778295	0.039902196324861	0.0395886340097109	0.0401266764738819	0.0393890118009693	0.0372074435509633	0.0367224545865535	0.0376009922897586	0.0367521476813105	0.0396494301229583	0.0398008642436157	0.0397660855913672	0.0401309396161968	0.0396041096541155	0.0377122665388076	0.0384199424591626	0.0366830692811637	0.0362275430192776	0.0357673933781108	0.03764157507447	0.0364564257904752	0.0357715781256154	0.0348391232642122	0.034856117779118	0.0330461954619026	0.0319187006437581	0.032581456448461	0.0333127215661613	0.0329087254250026	0.0324720006929522	0.0327163196305301	0.0327163196305301	0.0321156547744669	0.0323431602643399	0.0295657720509713	0.0296255498147787	0.0287640066264794	0.0287640066264794	0.0284412119837703	0.0292087649938001	0.028591058048584	0.028670722529629	0.0306666892085258	0.0311846831223815	0.0306865712665769	0.0320452513222004	0.0294496742236239	0.0282408941382717	0.0284306485560805	0.0258892429377756	0.0280657945312509	0.0285926244933321	0.029776791688285	0.029776791688285	0.0308059889459289	0.0316137356621497	0.0302111699123128	0.0312628349933327	0.0317403083569725	0.0316261810141273	0.0328307809211543	0.033515628586014	0.0340781659121919
0.0254645422684912	0.0261410013093296	0.0256825844636293	0.0262094144257105	0.0235569953332428	0.0240668307804181	0.023414989598069	0.0221807391428282	0.022674128285256	0.0219644575217584	0.0226272133264613	0.0237922913052106	0.0243475522541829	0.0249288408245667	0.0258191021191426	0.0251984151012106	0.0243646636286629	0.0240846373269883	0.0234432607417919	0.0228018841565955	0.0230820089269674	0.0223263683053438	0.0211267582551612	0.0221690615074703	0.0215877729370865	0.0200742036380193	0.0221444853076586	0.021383803586922	0.0219620609115808	0.0226524460018495	0.0201530084631253	0.021880555528995	0.0222478595105493	0.0227253328741891	0.0218865608292685	0.0219872430989626	0.0233344726476778	0.0243167605820005	0.0234951629469848	0.0228162478031576	0.0235718884247812	0.0245978477728793	0.0257144720700735	0.0259191477713864	0.0272565745469986	0.0276005637076634	0.0276340045273169	0.0271540895240303	0.025989011545281	0.0252081829029367	0.0248524620259249	0.023962200731349	0.023962200731349	0.0254166392218287	0.0248898092597475	0.0256966655235033	0.0263380421086997	0.0255923656365291	0.0266992939235242	0.0274549345451478	0.0282749971477243	0.0281935299134051	0.0289012058337602	0.0283680826605332	0.0272572700952269	0.0274775625925079	0.0271288568486422	0.0268463024170458	0.0291662233902956	0.0275334433399423	0.0270559699763025	0.0266506976461364	0.0273134534508394	0.0270384191299055	0.0254645422684912	0.0259743777156666	0.0255784639831518	0.0256825844636293	0.0262094144257105	0.0235569953332428	0.0243889850411864	0.023414989598069	0.0221807391428282	0.0221807391428282	0.0216204683610936	0.0231716042872786	0.024573119947555	0.0237662636837992	0.0249288408245667	0.0258191021191426	0.0251984151012106	0.0243646636286629	0.0240846373269883	0.0234432607417919	0.0228018841565955	0.0230820089269674	0.0223263683053438	0.0211267582551612	0.0215063057027673	0.0215877729370865	0.0200742036380193	0.0214132201899584	0.021383803586922	0.0214352309494995	0.0229350004334458	0.0201530084631253	0.020615079460196	0.0227253328741891	0.0231306052043552	0.0224678493996523	0.0214938539565348	0.0222808127235154	0.0243167605820005	0.0234951629469848	0.0233430777652388	0.0235718884247812	0.0235718884247812	0.0253704829094087	0.0250483286486404	0.0255751586107216	0.0268094090659624	0.0268428498856158	0.0263629348823293	0.02519785690358	0.0244170282612356	0.0240613073842239	0.023171046089648	0.023171046089648	0.023171046089648	0.0234779676001144	0.0242848238638702	0.0249262004490667	0.0235992354065123	0.024180523976896	0.0253549460063579	0.0257562272010961	0.0250934713963932	0.0256747599667769	0.025849312713905	0.0247385001485987	0.0244813192822399	0.0241326135383742	0.0242173630883321	0.0255492930620956	0.0239165130117423	0.0234390396481025	0.0236965231226394	0.0231152345522556	0.0223133702692405	0.0207394934078261	0.0210512555956664	0.0216774688604912	0.0209575356029642	0.0209575356029642	0.0191589411183367	0.0191589411183367	0.0189542654170237	0.017720014961783	0.017720014961783	0.0171597441800483	0.0187871761633481	0.0193315671241654	0.0193055395027539	0.0198868280731377	0.0198868280731377	0.0198868280731377	0.01905307660059	0.0182462203368342	0.0176048437516378	0.0182469611293324	0.0183505202238084	0.0175948796021848	0.0167748169996083	0.0167748169996083	0.0168562842339275	0.0153427149348603	0.0157222623824664	0.0157907716954637	0.0149222623869795	0.0161394774393294
0.0233233463636714	0.0219067807149284	0.0215846264541601	0.022426244898837	0.0218818539380198	0.0211010252956754	0.0211010252956754	0.0217224323915409	0.0229081999375546	0.0225527444715343	0.0230971354323516	0.0218567030668211	0.0222076966836838	0.0219157237710342	0.0219157237710342	0.0214536527739634	0.0208911154477856	0.0215405701624159	0.0216669575123872	0.0216142556333847	0.0216142556333847	0.0217021550613407	0.0210814680434087	0.0218127331611089	0.0218127331611089	0.0225048733022493	0.0235789906755453	0.0235752528796191	0.0219875679735189	0.0209818064231904	0.0216681523814905	0.0218242529394707	0.0229814766227193	0.0229794152848053	0.0229794152848053	0.0229173243361656	0.0225277504004818	0.0231199755739175	0.0234854131500115	0.0253207602065928	0.0248012960226842	0.0248012960226842	0.0253456869835015	0.0261265156258459	0.0263717250158888	0.0249200058400299	0.0249200058400299	0.0252754613060502	0.0244388474059093	0.0266161576347309	0.0262180209647176	0.0265099938773672	0.026972064874438	0.026972064874438	0.0259948861914096	0.0278050841570473	0.027678696807076	0.0277313986860785	0.0277313986860785	0.0282641862760545	0.0275329211583543	0.0275329211583543	0.0269516325879705	0.0264080402291143	0.0250353985262176	0.0265772577035999	0.0277431608783408	0.0274690361111024	0.0271579597875619	0.0263318156132083	0.0260087222307235	0.0263662390346579	0.0263662390346579	0.0258470414129138	0.0264163199853917	0.0258602411694517	0.0240248941128703	0.023702739852102	0.024544358296779	0.0239999673359617	0.0232191386936173	0.0232191386936173	0.0232981536612888	0.0244256484794333	0.024070193013413	0.024070193013413	0.0230412588725725	0.0227294966847323	0.022835660442096	0.022835660442096	0.0223735894450252	0.0218110521188474	0.0224605068334777	0.0209592815920321	0.0211044201862093	0.0216142556333847	0.0211208664909569	0.0210814680434087	0.0218127331611089	0.0218127331611089	0.0223169270724169	0.0236688792080491	0.0235752528796191	0.0219875679735189	0.02141454721129	0.0219387091570005	0.0214320539102777	0.0225040032590795	0.0222481501671051	0.0229794152848053	0.0223166594801023	0.0225277504004818	0.0234737252948888	0.0237554205740719	0.0250809321834778	0.0245614679995692	0.0245614679995692	0.0251058589603865	0.0258866876027308	0.0255312321367105	0.0238186346286156	0.0241740900946359	0.0241740900946359	0.0223632068731713	0.0252030242354763	0.0248520306186136	0.0251166497533033	0.0251166497533033	0.0255787207503741	0.0254918033619216	0.0254918033619216	0.0262853526830121	0.0263380545620145	0.0268314437044423	0.0262501551340586	0.0261395770342904	0.0261395770342904	0.0255582884639066	0.0250146961050504	0.023997509868174	0.023997509868174	0.0255431259875033	0.0256961445394324	0.0255200218195834	0.0245589240415382	0.0242358306590535	0.0235555673597428	0.0239804471891733	0.0235297588804265	0.0236937651227383	0.0233640052522411	0.0219474396034981	0.0216252853427298	0.0220048327903359	0.0214604418295186	0.0206796131871743	0.0206796131871743	0.020078948331111	0.0223922106952692	0.0220367552292489	0.0233032474898962	0.0210078210884085	0.0206960589005682	0.0210941955705815	0.0210941955705815	0.0206321245735107	0.0200695872473328	0.0198000129706889	0.0182987877292434	0.0184439263234206	0.018953761770596	0.0184603726281682	0.0191522392983202	0.0191522392983202	0.0197335278687039	0.0192236924215286	0.0202771202275602	0.0212943064644365	0.0203693773630393	0.0191629310050786
0.0144685667256138	0.0136877380832694	0.0133081906356633	0.0144254814301765	0.0139658359171703	0.0145865229351024	0.0157726239076128	0.0169377018863621	0.0180625286881359	0.0180098268091334	0.0180098268091334	0.0171760753365857	0.0176694644790135	0.0176829735566857	0.0176829735566857	0.0160683934417937	0.0169072640561447	0.0169072640561447	0.018079855308023	0.0193574697082899	0.0189386883004516	0.0189386883004516	0.0193769660758765	0.0184508361453491	0.0184508361453491	0.0172946911982183	0.0177418566792546	0.0190608945851885	0.0190608945851885	0.0181362557405125	0.0184810410071975	0.0195937751062949	0.0187600236337472	0.0187600236337472	0.0191927644218468	0.0189500788041007	0.0183240576581767	0.0185822653010711	0.0185822653010711	0.0193630939434154	0.0193504423618285	0.0186253505965083	0.0190849961095145	0.0176834804492381	0.0167338171582547	0.0161285325068918	0.0149559412550134	0.0155184785811913	0.0155184785811913	0.0158588409113111	0.0158588409113111	0.0158453318336389	0.0158453318336389	0.0166083897525931	0.01662104133418	0.0161112058870046	0.014492989942803	0.0141708356820347	0.014589617089873	0.0140452261290558	0.0146447284568759	0.0150774692449755	0.0150774692449755	0.0157864487110701	0.0140202453240999	0.0144674108051361	0.0144674108051361	0.0145851933860563	0.0136016375479025	0.0139345302840298	0.0147682817565775	0.0147682817565775	0.0145782265862239	0.0150556999498637	0.0152641505137204	0.0149460400892536	0.0141652114469092	0.0137856639993031	0.0141778630284961	0.0144433092808101	0.0144433092808101	0.0158448249410865	0.0167944882320699	0.0173997728834329	0.0180098268091334	0.0180098268091334	0.0171760753365857	0.0176694644790135	0.0172641921488474	0.0176829735566857	0.0160683934417937	0.0165277166085386	0.0169072640561447	0.0179104886457479	0.0190353154475216	0.0189386883004516	0.0189386883004516	0.0186457009581763	0.0184508361453491	0.0184508361453491	0.0172946911982183	0.0177418566792546	0.0183981387804855	0.0183981387804855	0.0174734999358095	0.0178182852024945	0.0184982785134923	0.0176645270409446	0.0176645270409446	0.0176645270409446	0.0178545822112982	0.0167958202772746	0.0168861038522053	0.0182675973506129	0.0182675973506129	0.018254945769026	0.0175298540037057	0.0179894995167119	0.0165879838564356	0.0156383205654522	0.0145555625504494	0.0144229819883887	0.0144229819883887	0.0144229819883887	0.0147633443185086	0.0151686166486747	0.0147498352408364	0.0147498352408364	0.0155128931597905	0.0151333457121844	0.014623510265009	0.0130052943208075	0.0131019214678775	0.0131019214678775	0.0125575305070602	0.0123196545317878	0.0132457844623152	0.0132457844623152	0.0139547639284097	0.0128513163461425	0.0132984818271787	0.013745647308215	0.0138783354051697	0.0128654493580447	0.0131983420941719	0.0140320935667196	0.0140320935667196	0.0132976474355488	0.0144233269667499	0.0139949733522629	0.0142098518993958	0.0134290232570514	0.0130494758094453	0.0130494758094453	0.0133149220617593	0.0133149220617593	0.0144800000405086	0.0148852723706747	0.0160003924692131	0.0161006109477382	0.0161006109477382	0.0157602486176183	0.0157602486176183	0.0153549762874522	0.0157737576952905	0.0141591775803985	0.0150106997763364	0.0153902472239425	0.0153902472239425	0.0165463921710733	0.0164497650240033	0.0164497650240033	0.0165007668423927	0.0163059020295656	0.0163059020295656	0.0151497570824348	0.0151497570824348	0.0158060391836658	0.0158060391836658	0.0148814003389897
0.00867980751443135	0.00703578309091355	0.0060480808688839	0.0060480808688839	0.0060480808688839	0.0060480808688839	0.00641538485043823	0.00751354523201005	0.00751354523201005	0.00767801883385257	0.00767801883385257	0.00729847138624643	0.00777594474988624	0.00726610930271085	0.00777594474988624	0.00788322046352168	0.00788322046352168	0.00788322046352168	0.00885103011986564	0.00885103011986564	0.00885103011986564	0.00885103011986564	0.00856847568826926	0.00897374801843536	0.00807651449210705	0.00903735051009697	0.00901597129059042	0.00901597129059042	0.00901597129059042	0.00784776474331277	0.00820322020933308	0.00820322020933308	0.0085705241908874	0.00898930559872571	0.00898930559872571	0.00971859729006699	0.0101960706537068	0.0101960706537068	0.0101960706537068	0.0120209410354984	0.0128277972992542	0.0128277972992542	0.0128277972992542	0.0124604933176999	0.0113623329361281	0.0113623329361281	0.0107506938532493	0.0111978593342856	0.0111978593342856	0.0115774067818917	0.0110999334182519	0.0116097688654273	0.0110260985242699	0.0115194876666977	0.0115194876666977	0.0109569503405198	0.0111329665807375	0.0111329665807375	0.0111329665807375	0.0111329665807375	0.0110102486821678	0.0110102486821678	0.0109466461905062	0.0103052696053098	0.0109680254100127	0.0109680254100127	0.0121362319572904	0.0117807764912701	0.0117807764912701	0.0117807764912701	0.0109946911018775	0.0109946911018775	0.0102653994105362	0.00978792604689637	0.00978792604689637	0.00978792604689637	0.00814390162337857	0.00715619940134892	0.00715619940134892	0.00715619940134892	0.00715619940134892	0.00752350338290324	0.00862166376447507	0.00862166376447507	0.00878613736631759	0.00878613736631759	0.00840658991871145	0.00797384913061187	0.00837422783517587	0.00837422783517587	0.00846450903390547	0.00846450903390547	0.00846450903390547	0.00902704636008332	0.00885103011986564	0.00885103011986564	0.00885103011986564	0.00897374801843536	0.00897374801843536	0.00840998077193862	0.00903735051009697	0.00901597129059042	0.00901597129059042	0.00901597129059042	0.00820322020933308	0.00820322020933308	0.00820322020933308	0.00820322020933308	0.00898930559872571	0.00898930559872571	0.00971859729006699	0.0101960706537068	0.0101960706537068	0.0107773592240906	0.0121201213788992	0.0128277972992542	0.0128277972992542	0.0128277972992542	0.0124604933176999	0.0113623329361281	0.0113623329361281	0.0107506938532493	0.0107506938532493	0.0111302413008555	0.0115629820889551	0.0106527679372157	0.0111626033843911	0.0100521030811524	0.0110723221856615	0.0110723221856615	0.0105097848594836	0.0101045125293175	0.0106858010997013	0.0106858010997013	0.0109683555312977	0.0105630832011316	0.0105630832011316	0.01049948070947	0.00985810412427354	0.0105208599289765	0.0105208599289765	0.0105208599289765	0.0113336110102338	0.0113336110102338	0.0113336110102338	0.0105475256208412	0.0105475256208412	0.00981823392949994	0.00934076056586013	0.00934076056586013	0.00934076056586013	0.00769673614234233	0.00670903392031269	0.00670903392031269	0.00670903392031269	0.00670903392031269	0.00817449828343883	0.00817449828343883	0.00878613736631759	0.00878613736631759	0.00878613736631759	0.00840658991871145	0.00797384913061187	0.00837422783517587	0.00897489269123911	0.00846450903390547	0.00846450903390547	0.00846450903390547	0.00902704636008332	0.00885103011986564	0.00885103011986564	0.00885103011986564	0.00856847568826926	0.00897374801843536	0.00820823964916097	0.00903735051009697	0.00901597129059042	0.00901597129059042	0.00901597129059042	0.00784776474331277
0.00764747884700773	0.00764747884700773	0.00764747884700773	0.00795156106393904	0.00795156106393904	0.00708421773670216	0.00708421773670216	0.00761104769878339	0.00761104769878339	0.00758446532013809	0.00716568391229978	0.00787335983265484	0.00767194360287664	0.00803924758443096	0.00964444368435295	0.00964444368435295	0.00971664471782665	0.0102791820440045	0.0102791820440045	0.00978579290157671	0.00973913819009782	0.00973913819009782	0.010118685637704	0.010118685637704	0.010118685637704	0.00883105654620585	0.00883105654620585	0.00870498099401322	0.00919837013644101	0.00919837013644101	0.00977807755149418	0.0103989433394783	0.0104595916938065	0.0108923324819061	0.0113698058455459	0.0113698058455459	0.0123093502062565	0.0123093502062565	0.0123093502062565	0.0123093502062565	0.0123093502062565	0.0120052679893251	0.0120052679893251	0.012872611316562	0.0123457813544808	0.0123457813544808	0.0119535823252878	0.0127911451409644	0.0127911451409644	0.0117914963079598	0.0119175814688332	0.010805774511339	0.0103123853689112	0.00983491200527143	0.0102401843354375	0.00967764700925968	0.00967764700925968	0.00983814341556024	0.0102176908631664	0.0102176908631664	0.00983814341556024	0.00983814341556024	0.0102303424447532	0.0111257725070583	0.0111257725070583	0.011251848059251	0.0107584589168232	0.0106408224988408	0.00955788571378591	0.00955788571378591	0.0094972373594577	0.00858702320771831	0.00858702320771831	0.00764747884700773	0.00764747884700773	0.00764747884700773	0.00764747884700773	0.00764747884700773	0.00715408970457993	0.00795156106393904	0.00708421773670216	0.00708421773670216	0.00761104769878339	0.00761104769878339	0.00758446532013809	0.00716568391229978	0.00716568391229978	0.00767194360287664	0.00847198837253054	0.00915105454192515	0.0101219170479928	0.00971664471782665	0.00971664471782665	0.0102791820440045	0.00978579290157671	0.00973913819009782	0.00973913819009782	0.00973913819009782	0.010118685637704	0.010118685637704	0.00883105654620585	0.00883105654620585	0.00799730507365816	0.00870498099401322	0.00919837013644101	0.0100267608749113	0.0103989433394783	0.00996620255137869	0.0104595916938065	0.0113698058455459	0.0113698058455459	0.0113698058455459	0.0113698058455459	0.0113698058455459	0.0113698058455459	0.0113698058455459	0.0110657236286146	0.0110657236286146	0.0119330669558515	0.0114062369937702	0.0114062369937702	0.0110140379645772	0.0114328193724155	0.0118516007802538	0.0108519519472492	0.0109780371081227	0.00986623015062845	0.00937284100820066	0.00889536764456085	0.00930063997472695	0.0087381026485491	0.0087381026485491	0.00889859905484965	0.00927814650245579	0.00927814650245579	0.00889859905484965	0.00889859905484965	0.0092314917909769	0.0101862281463478	0.0101862281463478	0.0103123036985404	0.0098189145561126	0.0093090791089372	0.00788707623537511	0.00905108214117492	0.00855769299874712	0.00764747884700773	0.00764747884700773	0.00764747884700773	0.00764747884700773	0.00764747884700773	0.00764747884700773	0.00764747884700773	0.00715408970457993	0.00795156106393904	0.00708421773670216	0.00708421773670216	0.00761104769878339	0.0080032467279764	0.00758446532013809	0.00716568391229978	0.00745765682494938	0.00767194360287664	0.00840655156598528	0.00915105454192515	0.00964444368435295	0.00971664471782665	0.00971664471782665	0.0102791820440045	0.010118685637704	0.00973913819009782	0.00973913819009782	0.00973913819009782	0.010118685637704	0.010118685637704	0.00883105654620585	0.00883105654620585	0.00799730507365816	0.00870498099401322	0.00919837013644101
0.00548708628535697	0.00492454895917912	0.00492454895917912	0.00534333036701742	0.00568731952768224	0.00568731952768224	0.00568731952768224	0.00568731952768224	0.00568731952768224	0.00518853705519032	0.00518853705519032	0.00518853705519032	0.00472646605811954	0.0045018612497912	0.00460990980403413	0.00416274432299789	0.00416274432299789	0.00416274432299789	0.00416274432299789	0.00416274432299789	0.004568016653164	0.004568016653164	0.004568016653164	0.00418846920555786	0.00418846920555786	0.00468185834798566	0.00468185834798566	0.00548791850572126	0.00548791850572126	0.00586746595332739	0.00550016197177307	0.00491887340138928	0.00491887340138928	0.00491887340138928	0.00500936708751104	0.00500936708751104	0.00465391162149073	0.00519830258230801	0.00590878718231036	0.00647132450848821	0.00647132450848821	0.00605254310064991	0.00570855393998509	0.00570855393998509	0.00570855393998509	0.00570855393998509	0.0053967917521448	0.00693860153017723	0.00693860153017723	0.00693860153017723	0.00740067252724801	0.00780612329385017	0.00822490470168848	0.00867207018272472	0.00867207018272472	0.00867207018272472	0.00867207018272472	0.00826679785255861	0.00826679785255861	0.00826679785255861	0.00826679785255861	0.00864634530016475	0.00815295615773695	0.00815295615773695	0.00734689600000135	0.00734689600000135	0.00734689600000135	0.00696734855239522	0.00791594110433332	0.00791594110433332	0.00791594110433332	0.00791594110433332	0.00782544741821157	0.00782544741821157	0.00798050108407942	0.00669393568813962	0.00636348999723439	0.00636348999723439	0.00636348999723439	0.0067822714050727	0.00712626056573752	0.00712626056573752	0.00712626056573752	0.00712626056573752	0.0066274780932456	0.00589621297554538	0.00589621297554538	0.0054341419784746	0.00520953717014625	0.00460990980403413	0.00416274432299789	0.00416274432299789	0.00416274432299789	0.00416274432299789	0.00416274432299789	0.004568016653164	0.004568016653164	0.004568016653164	0.00418846920555786	0.00418846920555786	0.00418846920555786	0.00418846920555786	0.00465054020262864	0.00465054020262864	0.00465054020262864	0.00466278366868045	0.00408149509829667	0.00408149509829667	0.00408149509829667	0.00377978975522542	0.00417198878441842	0.00381653331839811	0.00401693511855057	0.00456157343204235	0.00512411075822021	0.00512411075822021	0.0047053293503819	0.00436134018971708	0.00436134018971708	0.00436134018971708	0.00436134018971708	0.00445485033204289	0.004860122662209	0.00559138777990922	0.00559138777990922	0.00605345877698	0.00575123362322711	0.00687769095142047	0.00732485643245671	0.00732485643245671	0.00732485643245671	0.00732485643245671	0.00691958410229061	0.00691958410229061	0.00691958410229061	0.00691958410229061	0.00729913154989674	0.00729913154989674	0.00729913154989674	0.00683706055282596	0.00683706055282596	0.00683706055282596	0.00645751310521983	0.00682481708677415	0.00740610565715793	0.00740610565715793	0.00740610565715793	0.00731561197103618	0.00731561197103618	0.00712667647623921	0.00669393568813962	0.00636348999723439	0.00636348999723439	0.00636348999723439	0.0067822714050727	0.00712626056573752	0.00712626056573752	0.00712626056573752	0.00712626056573752	0.0066274780932456	0.00589621297554538	0.00589621297554538	0.0054341419784746	0.00520953717014625	0.00408307984195289	0.00363591436091665	0.00363591436091665	0.00363591436091665	0.00363591436091665	0.00363591436091665	0.00363591436091665	0.00363591436091665	0.00363591436091665	0.00325636691331052	0.00325636691331052	0.00325636691331052	0.00325636691331052	0.0037184379103813	0.0037184379103813	0.0037184379103813
0.00448230189465144	0.00463564981547024	0.00401496279753823	0.00461562765360147	0.00461562765360147	0.00461562765360147	0.00512546310077686	0.00450477608284484	0.00450477608284484	0.00484876524350966	0.004680841175546	0.004680841175546	0.004680841175546	0.004680841175546	0.004680841175546	0.004680841175546	0.00435465928046317	0.00435465928046317	0.00435465928046317	0.00511029990208674	0.00511029990208674	0.00511029990208674	0.00511029990208674	0.00511029990208674	0.00456590894126946	0.00456590894126946	0.00456590894126946	0.00462719211077074	0.00462719211077074	0.00456904241901658	0.00456904241901658	0.00554925472268596	0.00554925472268596	0.00554925472268596	0.00554925472268596	0.00554925472268596	0.00619063130788237	0.00653462046854719	0.00619063130788237	0.00638127254772839	0.00640129470959716	0.00640129470959716	0.00640129470959716	0.00589145926242177	0.00651214628035379	0.00651214628035379	0.00651214628035379	0.00573541633158939	0.00633608118765263	0.00633608118765263	0.00633608118765263	0.00633608118765263	0.00633608118765263	0.00616887394030766	0.00666226308273546	0.00666226308273546	0.0059066224611119	0.0059066224611119	0.0059066224611119	0.0059066224611119	0.0059066224611119	0.0059066224611119	0.00645101342192918	0.00645101342192918	0.00604574109176307	0.00638973025242789	0.00582719292625003	0.00644787994418205	0.00606833249657592	0.00546766764051268	0.00546766764051268	0.00546766764051268	0.00546766764051268	0.00546766764051268	0.00482629105531626	0.00448230189465144	0.00463564981547024	0.00401496279753823	0.00461562765360147	0.00461562765360147	0.00512546310077686	0.00512546310077686	0.00450477608284484	0.00450477608284484	0.00450477608284484	0.004680841175546	0.004680841175546	0.004680841175546	0.004680841175546	0.004680841175546	0.004680841175546	0.0041874520331182	0.0041874520331182	0.0041874520331182	0.00494309265474177	0.00494309265474177	0.00494309265474177	0.00494309265474177	0.00494309265474177	0.00439870169392449	0.00439870169392449	0.00439870169392449	0.00445998486342578	0.00401281938238954	0.00440183517167161	0.00440183517167161	0.00478138261927775	0.00538204747534099	0.00538204747534099	0.00538204747534099	0.00538204747534099	0.00538204747534099	0.00602342406053741	0.00602342406053741	0.00621406530038342	0.00561340044432018	0.00561340044432018	0.00561340044432018	0.00510356499714479	0.00510356499714479	0.0057242520150768	0.0057242520150768	0.0049475220663124	0.00554818692237565	0.00554818692237565	0.00554818692237565	0.00554818692237565	0.00554818692237565	0.00604157606480344	0.00604157606480344	0.00604157606480344	0.00528593544317988	0.00528593544317988	0.00528593544317988	0.00528593544317988	0.00528593544317988	0.00528593544317988	0.00583032640399716	0.00583032640399716	0.00542505407383105	0.00576904323449587	0.00520650590831802	0.00582719292625003	0.0054476454786439	0.00484698062258066	0.00484698062258066	0.00484698062258066	0.00484698062258066	0.00484698062258066	0.00420560403738424	0.00386161487671942	0.00367097363687341	0.00367097363687341	0.00367097363687341	0.00367097363687341	0.00367097363687341	0.0041808090840488	0.00356012206611678	0.00356012206611678	0.00399286285421637	0.00373618715881794	0.00373618715881794	0.00373618715881794	0.00373618715881794	0.00373618715881794	0.00373618715881794	0.00324279801639014	0.00324279801639014	0.00324279801639014	0.00324279801639014	0.00324279801639014	0.00324279801639014	0.00324279801639014	0.00324279801639014	0.00269840705557286	0.00269840705557286	0.00269840705557286	0.00275969022507415	0.00231252474403791	0.00270154053331999
0.00510759133357496	0.00510759133357496	0.00506962298496318	0.00551678846599942	0.00485403266129645	0.00543067948752348	0.00543067948752348	0.00543067948752348	0.00543067948752348	0.00543067948752348	0.00543067948752348	0.00543067948752348	0.00543067948752348	0.00490384952544224	0.00490384952544224	0.00473066883054876	0.00446604969585912	0.00446604969585912	0.0050104406566764	0.00456327517564016	0.0050104406566764	0.00495598204837385	0.00495598204837385	0.00495598204837385	0.00543345541201366	0.00490662544993242	0.00490662544993242	0.00541646089710781	0.00488963093502658	0.00488963093502658	0.00488963093502658	0.00529490326519268	0.00529490326519268	0.00529490326519268	0.00529490326519268	0.00488963093502658	0.00488963093502658	0.00488963093502658	0.00543402189584385	0.00543402189584385	0.00547199024445564	0.0050248247634194	0.00568758056812236	0.00511093374189534	0.00511093374189534	0.00511093374189534	0.00511093374189534	0.00511093374189534	0.00511093374189534	0.00511093374189534	0.00511093374189534	0.00563776370397657	0.00563776370397657	0.00581094439887005	0.00607556353355969	0.00607556353355969	0.00553117257274242	0.00553117257274241	0.00500434261066118	0.00558563118104496	0.00558563118104496	0.00510815781740516	0.00510815781740516	0.00563498777948639	0.00563498777948639	0.005125152332311	0.00565198229439224	0.00565198229439224	0.00565198229439224	0.00524670996422614	0.00524670996422614	0.00524670996422614	0.00524670996422614	0.00565198229439224	0.00565198229439224	0.00510759133357496	0.00510759133357496	0.00470231900340886	0.00506962298496318	0.00485403266129645	0.00449857719527614	0.00543067948752348	0.00543067948752348	0.00543067948752348	0.00543067948752348	0.00543067948752348	0.00543067948752348	0.00543067948752348	0.00490384952544224	0.00490384952544224	0.00449857719527614	0.00446604969585912	0.00446604969585912	0.00446604969585912	0.0050104406566764	0.00553727061875764	0.00495598204837385	0.00495598204837385	0.00495598204837385	0.00543345541201366	0.00490662544993242	0.00490662544993242	0.00490662544993242	0.00488963093502658	0.00488963093502658	0.00488963093502658	0.00488963093502658	0.00529490326519268	0.00529490326519268	0.00529490326519268	0.00488963093502658	0.00488963093502658	0.00488963093502658	0.00543402189584385	0.00583929422600996	0.00547199024445564	0.00568758056812236	0.00604303603414268	0.00511093374189534	0.00511093374189534	0.00511093374189534	0.00511093374189534	0.00511093374189534	0.00511093374189534	0.00511093374189534	0.00511093374189534	0.00563776370397657	0.00604303603414268	0.00581094439887005	0.00581094439887005	0.00581094439887005	0.00526655343805277	0.00526655343805277	0.00532101204635532	0.00532101204635532	0.00532101204635532	0.00484353868271551	0.00484353868271551	0.00537036864479675	0.00537036864479675	0.0053873631597026	0.0053873631597026	0.0053873631597026	0.0053873631597026	0.00498209082953649	0.00498209082953649	0.00498209082953649	0.0053873631597026	0.0053873631597026	0.0053873631597026	0.00484297219888532	0.00484297219888532	0.00443769986871922	0.00480500385027354	0.00458941352660681	0.0042339580605865	0.00516606035283384	0.00516606035283384	0.00516606035283384	0.00516606035283384	0.00516606035283384	0.00516606035283384	0.00516606035283384	0.0046392303907526	0.0046392303907526	0.0042339580605865	0.00446604969585912	0.00446604969585912	0.00446604969585912	0.00456327517564016	0.0050104406566764	0.00495598204837385	0.00495598204837385	0.00543345541201366	0.00543345541201366	0.00490662544993242	0.00490662544993242	0.00490662544993242	0.00488963093502658	0.00488963093502658
0.00312660491815366	0.00358867591522443	0.00358867591522443	0.00358867591522443	0.00391083017599273	0.00391083017599273	0.00391083017599273	0.00391083017599273	0.00391083017599273	0.00472835663908382	0.00472835663908382	0.00472835663908382	0.00545578323001823	0.00605644808608147	0.00605644808608147	0.00605644808608147	0.00605644808608147	0.00605644808608147	0.00605644808608147	0.00605644808608147	0.00605644808608147	0.00582435645080884	0.00622962878097495	0.00622962878097495	0.00658508424699526	0.00617981191682916	0.00582435645080885	0.00582435645080885	0.00582435645080885	0.00565714920346388	0.00565714920346388	0.00565714920346388	0.00565714920346388	0.00565714920346388	0.00578323436433735	0.00543924520367253	0.00451685284266927	0.00418396010654203	0.00460274151438033	0.00414067051730956	0.00414067051730956	0.00414067051730956	0.00381851625654126	0.00381851625654126	0.00381851625654126	0.00381851625654126	0.00300098979345017	0.00334497895411498	0.00334497895411498	0.00334497895411498	0.00201688750711734	0.00201688750711734	0.00201688750711734	0.00201688750711734	0.00201688750711734	0.00201688750711734	0.00201688750711734	0.00201688750711734	0.00224897914238996	0.00224897914238996	0.00184370681222386	0.00148825134620355	0.00189352367636965	0.00189352367636965	0.00224897914238996	0.00224897914238996	0.00224897914238996	0.00241618638973493	0.00241618638973493	0.00241618638973493	0.00241618638973493	0.00192279724730713	0.00263409038952627	0.00263409038952627	0.00355648275052954	0.00347059407881847	0.00347059407881847	0.00393266507588925	0.00393266507588925	0.00393266507588925	0.00425481933665755	0.00425481933665755	0.00425481933665755	0.00471689033372833	0.00507234579974864	0.00472835663908382	0.00472835663908382	0.00472835663908382	0.00605644808608147	0.00605644808608147	0.00605644808608147	0.00605644808608147	0.00605644808608147	0.00605644808608147	0.00605644808608147	0.00605644808608147	0.00582435645080884	0.00582435645080884	0.00622962878097495	0.00658508424699526	0.00617981191682916	0.00582435645080885	0.00582435645080885	0.00582435645080885	0.00565714920346388	0.00565714920346388	0.00565714920346388	0.00565714920346388	0.00565714920346388	0.00578323436433735	0.00543924520367253	0.00451685284266927	0.00460274151438033	0.00460274151438033	0.00414067051730956	0.00414067051730956	0.00414067051730956	0.00381851625654126	0.00381851625654126	0.00381851625654126	0.00381851625654126	0.00300098979345017	0.00300098979345017	0.00334497895411498	0.00334497895411498	0.00201688750711734	0.00201688750711734	0.00201688750711734	0.00201688750711734	0.00201688750711734	0.00201688750711734	0.00201688750711734	0.00201688750711734	0.00201688750711734	0.00224897914238996	0.00184370681222386	0.00148825134620355	0.00148825134620355	0.00224897914238996	0.00224897914238996	0.00224897914238996	0.00224897914238996	0.00241618638973493	0.00241618638973493	0.00241618638973493	0.00241618638973493	0.00229010122886145	0.00229010122886145	0.00325477740745829	0.00325477740745829	0.00283599599961998	0.00283599599961998	0.00329806699669076	0.00329806699669076	0.00329806699669076	0.00362022125745906	0.00362022125745906	0.00362022125745906	0.00362022125745906	0.00443774772055015	0.00409375855988533	0.00409375855988533	0.00409375855988533	0.00542185000688298	0.00542185000688298	0.00542185000688298	0.00542185000688298	0.00542185000688298	0.00542185000688298	0.00542185000688298	0.00542185000688298	0.00518975837161035	0.00518975837161035	0.00559503070177646	0.00595048616779677	0.00554521383763066	0.00518975837161035	0.00518975837161035	0.00518975837161035	0.00502255112426539
0.00319443453416665	0.00232895295796748	0.00232895295796748	0.00232895295796748	0.00168757637277106	0.00168757637277106	0.00168757637277106	0.00168757637277106	0.00168757637277106	0.0022144063348523	0.0022144063348523	0.0022144063348523	0.0022144063348523	0.00168757637277106	0.00168757637277106	0.00168757637277106	0.00168757637277106	0.00168757637277106	0.00168757637277106	0.00116074641068983	0.00116074641068983	0.00116074641068983	0.00116074641068983	0.00140856870124204	0.00140856870124204	0.00190195784366984	0.00190195784366984	0.00190195784366984	0.00159019565582955	0.00126804139506125	0.00126804139506125	0.00126804139506125	0.00126804139506125	0.00126804139506125	0.00126804139506125	0.00179487135714249	0.00179487135714249	0.00179487135714249	0.00179487135714249	0.00266035293334165	0.00266035293334165	0.00266035293334165	0.00330172951853807	0.00330172951853807	0.00330172951853807	0.00330172951853807	0.00277489955645683	0.00277489955645683	0.00277489955645683	0.00277489955645683	0.00277489955645683	0.00374889499957431	0.00374889499957431	0.00374889499957431	0.00374889499957431	0.00374889499957431	0.00374889499957431	0.00427572496165555	0.00427572496165555	0.00427572496165555	0.00402790267110333	0.00402790267110333	0.00353451352867553	0.00353451352867553	0.00353451352867553	0.00353451352867553	0.00384627571651582	0.00416842997728412	0.00416842997728412	0.00416842997728412	0.00416842997728412	0.00416842997728412	0.00364160001520289	0.00364160001520289	0.00364160001520289	0.00364160001520289	0.00277611843900372	0.00277611843900372	0.00277611843900372	0.0021347418538073	0.0021347418538073	0.0021347418538073	0.0021347418538073	0.0021347418538073	0.00266157181588854	0.00266157181588854	0.00266157181588854	0.00266157181588854	0.0021347418538073	0.00168757637277106	0.00168757637277106	0.00168757637277106	0.00168757637277106	0.00168757637277106	0.00116074641068983	0.00116074641068983	0.00116074641068983	0.00116074641068983	0.00116074641068983	0.00116074641068983	0.00165413555311762	0.00165413555311762	0.00165413555311762	0.00134237336527733	0.00102021910450904	0.00102021910450904	0.00102021910450904	0.00102021910450904	0.00102021910450904	0.00102021910450904	0.00154704906659027	0.00154704906659027	0.00154704906659027	0.00197978985468986	0.00241253064278944	0.00241253064278944	0.00241253064278944	0.00305390722798586	0.00305390722798586	0.00305390722798586	0.00305390722798586	0.00252707726590462	0.00252707726590462	0.00252707726590462	0.00252707726590462	0.00252707726590462	0.00305390722798586	0.0035010727090221	0.0035010727090221	0.0035010727090221	0.0035010727090221	0.0035010727090221	0.00402790267110333	0.00402790267110333	0.00402790267110333	0.00402790267110333	0.00402790267110333	0.00353451352867553	0.00353451352867553	0.00353451352867553	0.00353451352867553	0.00353451352867553	0.00353451352867553	0.00353451352867553	0.00353451352867553	0.00353451352867553	0.00353451352867553	0.0030076835665943	0.0030076835665943	0.0030076835665943	0.0030076835665943	0.00214220199039513	0.00214220199039513	0.00214220199039513	0.00150082540519871	0.00150082540519871	0.00150082540519871	0.00150082540519871	0.00150082540519871	0.00150082540519871	0.00150082540519871	0.00150082540519871	0.00150082540519871	0.000973995443117474	0.000526829962081237	0.000526829962081237	0.000526829962081237	0.000526829962081237	0.000526829962081237	0	0	0	0	0	0	0.000493389142427798	0.000493389142427798	0.000493389142427798	0.000493389142427798	0.000493389142427798
0.00206767078594032	0.00206767078594032	0.00164888937810202	0.00164888937810202	0.00164888937810202	0.00164888937810202	0.00164888937810202	0.00164888937810202	0.00164888937810202	0.00200434484412233	0.00200434484412233	0.00200434484412233	0.00206686814869381	0.00206686814869381	0.00206686814869381	0.00206686814869381	0.0023588410613434	0.0023588410613434	0.0023588410613434	0.0023588410613434	0.0023588410613434	0.0023588410613434	0.0023588410613434	0.0023588410613434	0.00280600654237964	0.00280600654237964	0.00274056973583438	0.00274056973583438	0.00274056973583438	0.00238511426981407	0.00152442114583195	0.00152442114583195	0.00152442114583195	0.00152442114583195	0.00152442114583195	0.00185731388195919	0.00185731388195919	0.00185731388195919	0.00212193301664883	0.00212193301664883	0.00254071442448714	0.00254071442448714	0.00254071442448714	0.00254071442448714	0.00254071442448714	0.00254071442448714	0.00218525895846683	0.00218525895846683	0.00218525895846683	0.00212273565389534	0.00212273565389534	0.00212273565389534	0.00212273565389534	0.00183076274124575	0.00183076274124575	0.00183076274124575	0.00183076274124575	0.00183076274124575	0.00183076274124575	0.00183076274124575	0.00183076274124575	0.00183076274124575	0.00138359726020951	0.00101629327865519	0.00144903406675477	0.00144903406675477	0.00144903406675477	0.00180448953277509	0.00266518265675721	0.00266518265675721	0.00266518265675721	0.00266518265675721	0.00233228992062996	0.00233228992062996	0.00233228992062996	0.00206767078594032	0.00206767078594032	0.00164888937810202	0.00164888937810202	0.00164888937810202	0.00164888937810202	0.00164888937810202	0.00164888937810202	0.00164888937810202	0.00200434484412233	0.00200434484412233	0.00200434484412233	0.00206686814869381	0.00206686814869381	0.00206686814869381	0.00206686814869381	0.0023588410613434	0.0023588410613434	0.0023588410613434	0.0023588410613434	0.0023588410613434	0.0023588410613434	0.0023588410613434	0.0023588410613434	0.0023588410613434	0.00280600654237964	0.00274056973583438	0.00274056973583438	0.00274056973583438	0.00238511426981407	0.00152442114583195	0.00152442114583195	0.00152442114583195	0.00152442114583195	0.00152442114583195	0.00152442114583195	0.00152442114583195	0.00178904028052159	0.00178904028052159	0.00178904028052159	0.00178904028052159	0.00178904028052159	0.00178904028052159	0.00178904028052159	0.00178904028052159	0.00178904028052159	0.00143358481450128	0.00143358481450128	0.00143358481450128	0.00137106150992979	0.00137106150992979	0.00137106150992979	0.00137106150992979	0.0010790885972802	0.0010790885972802	0.0010790885972802	0.0010790885972802	0.0010790885972802	0.0010790885972802	0.0010790885972802	0.0010790885972802	0.0010790885972802	0.000631923116243962	0.00026461913468964	0.000697359922789224	0.000697359922789224	0.00105281538880954	0.00154620453123733	0.00191350851279166	0.00191350851279166	0.00191350851279166	0.00191350851279166	0.00191350851279166	0.00191350851279166	0.00191350851279166	0.00164888937810202	0.00164888937810202	0.00164888937810202	0.00164888937810202	0.00164888937810202	0.00164888937810202	0.00164888937810202	0.00164888937810202	0.00200434484412233	0.00200434484412233	0.00200434484412233	0.00200434484412233	0.00200434484412233	0.00200434484412233	0.00200434484412233	0.00200434484412233	0.00229631775677192	0.00229631775677192	0.00229631775677192	0.00229631775677192	0.00229631775677192	0.00229631775677192	0.00229631775677192	0.00229631775677192	0.00229631775677192	0.00311078721936248	0.0026780464312629	0.0026780464312629	0.0026780464312629	0.00232259096524259
0.00182116408098219	0.00182116408098219	0.00182116408098219	0.00182116408098219	0.00135909308391141	0.00135909308391141	0.00135909308391141	0.00135909308391141	0.00135909308391141	0.00135909308391141	0.00135909308391141	0.00135909308391141	0.00135909308391141	0.00135909308391141	0.00135909308391141	0.00135909308391141	0.00135909308391141	0.000991789102357091	0.00153618006317437	0.00153618006317437	0.00135168854074274	0.00135168854074274	0.00135168854074274	0.00135168854074274	0.00135168854074274	0.00135168854074274	0.00135168854074274	0.000747953440252857	0.000747953440252857	0.000747953440252857	0.000747953440252857	0.000747953440252857	0.000747953440252857	0.000747953440252857	0.00127478340233409	0.00127478340233409	0.00107122092289852	0.00107122092289852	0.00107122092289852	0.00107122092289852	0.00107122092289852	0.00153329191996929	0.00153329191996929	0.00153329191996929	0.00153329191996929	0.00153329191996929	0.00153329191996929	0.00153329191996929	0.00153329191996929	0.00153329191996929	0.00153329191996929	0.00153329191996929	0.00153329191996929	0.00153329191996929	0.00153329191996929	0.00135620494070634	0.00135620494070634	0.00135620494070634	0.00154069646313797	0.00154069646313797	0.00154069646313797	0.00154069646313797	0.00154069646313797	0.00154069646313797	0.00154069646313797	0.00214443156362785	0.00214443156362785	0.00214443156362785	0.00214443156362785	0.00214443156362785	0.00214443156362785	0.00214443156362785	0.00161760160154661	0.00161760160154661	0.00182116408098219	0.00182116408098219	0.00182116408098219	0.00182116408098219	0.00182116408098219	0.00135909308391141	0.00135909308391141	0.00135909308391141	0.00135909308391141	0.00135909308391141	0.00135909308391141	0.00135909308391141	0.00135909308391141	0.00135909308391141	0.00135909308391141	0.00135909308391141	0.00135909308391141	0.00135909308391141	0.000991789102357091	0.00153618006317437	0.00153618006317437	0.00135168854074274	0.00135168854074274	0.00135168854074274	0.00135168854074274	0.00135168854074274	0.00135168854074274	0.00135168854074274	0.000747953440252857	0.000747953440252857	0.000747953440252857	0.000747953440252857	0.000747953440252857	0.000747953440252857	0.000747953440252857	0.000747953440252857	0.00127478340233409	0.00107122092289852	0.00107122092289852	0.00107122092289852	0.00107122092289852	0.00107122092289852	0.00107122092289852	0.00153329191996929	0.00153329191996929	0.00153329191996929	0.00153329191996929	0.00153329191996929	0.00153329191996929	0.00153329191996929	0.00153329191996929	0.00153329191996929	0.00153329191996929	0.00153329191996929	0.00153329191996929	0.00153329191996929	0.00135620494070634	0.00135620494070634	0.00135620494070634	0.00154069646313797	0.00154069646313797	0.00154069646313797	0.00154069646313797	0.00154069646313797	0.00154069646313797	0.00154069646313797	0.00214443156362785	0.00214443156362785	0.00214443156362785	0.00214443156362785	0.00214443156362785	0.00214443156362785	0.00214443156362785	0.00161760160154661	0.00182116408098219	0.00182116408098219	0.00182116408098219	0.00182116408098219	0.00182116408098219	0.00182116408098219	0.00135909308391141	0.00135909308391141	0.00135909308391141	0.00135909308391141	0.00135909308391141	0.00135909308391141	0.00135909308391141	0.00135909308391141	0.00135909308391141	0.00135909308391141	0.00135909308391141	0.00135909308391141	0.00135909308391141	0.000991789102357091	0.000991789102357091	0.000991789102357091	0.000807297579925464	0.000807297579925464	0.000807297579925464	0.000807297579925464	0.000807297579925464	0.000807297579925464	0.000807297579925464	0.000203562479435579	0.000203562479435579	0.000203562479435579
0.00148370823511077	0.00148370823511077	0.00148370823511077	0.00148370823511077	0.00148370823511077	0.00148370823511077	0.00148370823511077	0.00148370823511077	0.00148370823511077	0.00148370823511077	0.00148370823511077	0.00148370823511077	0.00148370823511077	0.00148370823511077	0.00148370823511077	0.00148370823511077	0.00117194604727048	0.00117194604727048	0.00117194604727048	0.00117194604727048	0.00117194604727048	0.000505802625837368	0.000505802625837368	0.000505802625837368	0.000505802625837368	0.000505802625837368	0.000505802625837368	0.000505802625837368	0.000505802625837368	0.000505802625837368	0.000505802625837368	0.000505802625837368	0.000343989160664818	0.000343989160664818	0.000343989160664818	0.000343989160664818	0.000392199029193004	0.000392199029193004	0.000392199029193004	0.000392199029193004	0.000392199029193004	0.000392199029193004	0.000392199029193004	0.000392199029193004	0.000392199029193004	0.000392199029193004	0.000392199029193004	0.000392199029193004	0.000392199029193004	0.000392199029193004	0.000392199029193004	0.000392199029193004	0.000392199029193004	0.000392199029193004	0.000703961217033294	0.000703961217033294	0.000703961217033294	0.000703961217033294	0.000703961217033294	0.00137010463846641	0.00137010463846641	0.00137010463846641	0.00137010463846641	0.00137010463846641	0.00137010463846641	0.00137010463846641	0.00137010463846641	0.00137010463846641	0.00137010463846641	0.00137010463846641	0.00153191810363896	0.00153191810363896	0.00153191810363896	0.00113971907444596	0.00148370823511077	0.00148370823511077	0.00148370823511077	0.00148370823511077	0.00148370823511077	0.00148370823511077	0.00148370823511077	0.00148370823511077	0.00148370823511077	0.00148370823511077	0.00148370823511077	0.00148370823511077	0.00148370823511077	0.00148370823511077	0.00148370823511077	0.00148370823511077	0.00148370823511077	0.00117194604727048	0.00117194604727048	0.00117194604727048	0.00117194604727048	0.00117194604727048	0.000505802625837368	0.000505802625837368	0.000505802625837368	0.000505802625837368	0.000505802625837368	0.000505802625837368	0.000505802625837368	0.000505802625837368	0.000505802625837368	0.000505802625837368	0.000505802625837368	0.000343989160664818	0.000343989160664818	0.000343989160664818	0.000343989160664818	0.000392199029193004	0.000392199029193004	0.000392199029193004	0.000392199029193004	0.000392199029193004	0.000392199029193004	0.000392199029193004	0.000392199029193004	0.000392199029193004	0.000392199029193004	0.000392199029193004	0.000392199029193004	0.000392199029193004	0.000392199029193004	0.000392199029193004	0.000392199029193004	0.000392199029193004	0.000392199029193004	0.000703961217033294	0.000703961217033294	0.000703961217033294	0.000703961217033294	0.00104795037769811	0.00137010463846641	0.00137010463846641	0.00137010463846641	0.00137010463846641	0.00137010463846641	0.00137010463846641	0.00137010463846641	0.00137010463846641	0.00137010463846641	0.00137010463846641	0.00137010463846641	0.00153191810363896	0.00153191810363896	0.00153191810363896	0.00148370823511077	0.00148370823511077	0.00148370823511077	0.00148370823511077	0.00148370823511077	0.00148370823511077	0.00148370823511077	0.00148370823511077	0.00148370823511077	0.00148370823511077	0.00148370823511077	0.00148370823511077	0.00148370823511077	0.00148370823511077	0.00148370823511077	0.00148370823511077	0.00148370823511077	0.00148370823511077	0.00117194604727048	0.00117194604727048	0.00117194604727048	0.00117194604727048	0.00117194604727048	0.000505802625837368	0.000505802625837368	0.000505802625837368	0.000505802625837368	0.000505802625837368	0.000505802625837368	0.000505802625837368	0.000505802625837368	0.000505802625837368
