1.63139802989157	1.60993826234741	1.60960306292552	1.55485347958529	1.57528813288543	1.56507358808313	1.57071206287611	1.55440438791399	1.54332716311208	1.53897372982523	1.55423302791243	1.55418968106549	1.53102559759357	1.51887730808974	1.52676766011026	1.53413984709774	1.56406418575057	1.53248166931778	1.51969742451617	1.50427703505775	1.52055223889379	1.5291396113779	1.50778909875981	1.50375770556395	1.47450140989807	1.47953599598057	1.47692876460527	1.49430215388501	1.4724639963751	1.47323198064884	1.48148036327783	1.48221183152829	1.49275800639058	1.49950592070745	1.48171641685179	1.48973678960457	1.48961212798043	1.50943247995028	1.5085526677566	1.53000486891009	1.53222043748676	1.50754256267978	1.5215480398552	1.48957128967456	1.5026672520999	1.49379133068783	1.47077370265054	1.4904106521928	1.49507905831182	1.50255768493213	1.49286565014482	1.45312088351102	1.4448666849986	1.4006467699783	1.41862346388686	1.40147540745254	1.41533239323655	1.39381759518105	1.39622430410813	1.38217408970472	1.39156839753062	1.38853859180423	1.37187720405667	1.36701424722435	1.3715770374862	1.39096168704946	1.41309667801683	1.37670585887306	1.36730140676251	1.3546471044725	1.35980707639647	1.37393353858145	1.35485058982245	1.33364179798624	1.30944400998312	1.32109377689408	1.30890463321182	1.3271228790185	1.29722787412776	1.30572285547291	1.32613012950191	1.3196924838717	1.33561910166238	1.34073862745477	1.32114346186022	1.32189009906948	1.32177097535032	1.33772001054114	1.3415473837918	1.36064371126952	1.3734133063395	1.35272028469217	1.36386134504731	1.32157893772052	1.33891757469379	1.31158304919976	1.30634628252644	1.32384215315887	1.32868661521435	1.32964062406336	1.31852385285597	1.28515923388902	1.2765696363596	1.22742229636703	1.24588438376975	1.22523290551448	1.23651791958081	1.20648134305202	1.20734515536019	1.19841066048672	1.19923459634305	1.19452846842553	1.16903764971006	1.16415417232641	1.16304724189338	1.18961835494594	1.20031174605214	1.16707906782399	1.16462495308962	1.13817421414311	1.15754698080953	1.15930850121413	1.1367848824309	1.10722465146475	1.09648779562793	1.09396731186761	1.08068385104146	1.0896970954072	1.06965442535174	1.07265823021182	1.09273085938801	1.08074119957262	1.08085023173447	1.08988031320044	1.0590265229606	1.057980752222	1.06699744704063	1.084479989602	1.09353225521358	1.09735137772869	1.11025645612467	1.10076220253659	1.10849458084142	1.08291083303167	1.09880366130437	1.0681242336246	1.07179892493978	1.09236549730541	1.09610646668407	1.09226348223752	1.0713413199109	1.04155170148016	1.02669966946843	0.982363267959629	0.992258745011555	0.966743240109393	0.978398374710795	0.94414627565211	0.932818946980465	0.924224951698926	0.919848401268881	0.900371605401899	0.895027641996296	0.894201244971254	0.896482669848891	0.91397590501286	0.926948604472092	0.904731794595286	0.907647874127305	0.889622176195263	0.902154652610675	0.908884162300663	0.882016035830029	0.868048246830744	0.849165298545174	0.855084334687571	0.850344022505155	0.861451759487853	0.830199582209289	0.823481946876094	0.838381664243781	0.844200415428447	0.848473527676464	0.848710775375944	0.8279956485589	0.840529112486539	0.855169453863165	0.855470266163641
1.2858318352368	1.27801052201709	1.27496354034449	1.27619168764627	1.27591765496199	1.26463975872881	1.25457993450154	1.26487098504675	1.27336127514186	1.25925845680694	1.27810020838823	1.28244827280011	1.30735767482033	1.32327090521022	1.27722330744104	1.26950080544251	1.25642443481295	1.2231165310129	1.26229082626681	1.26779675241002	1.24113756864827	1.25106955404414	1.23416564632954	1.21324794637526	1.21296584664532	1.20033406225908	1.19532300893082	1.20686142907498	1.19224242273037	1.17104369460686	1.18953019325098	1.17025702503384	1.17629719207628	1.17130787708079	1.16063770477615	1.19463844682785	1.19077675286537	1.20071985593944	1.19668601451653	1.18901938837852	1.19128007133141	1.22527468711877	1.2360797075185	1.22014572064483	1.21946761504062	1.19084382212905	1.20749678354899	1.19843673754637	1.20547690718022	1.19426354588816	1.15283502302777	1.16424472174428	1.15766556170199	1.15455148588261	1.15610923875896	1.13262133096004	1.12089849770662	1.12572032646782	1.1351788149784	1.12373003462296	1.13847944606619	1.1358313124183	1.17120125321987	1.18816368189517	1.15032885687681	1.14621148229808	1.13859180698324	1.10713222324987	1.13976390443296	1.13290119778559	1.11122475998385	1.11205169367353	1.10725785469053	1.0767037734655	1.07384916725932	1.06768399715351	1.06140899685315	1.06574539577016	1.0495468507059	1.04418528838559	1.06899816713937	1.04304355839769	1.06214022160491	1.05805880388767	1.0372684844459	1.06347442296972	1.05665063889327	1.06526179847534	1.04950902133964	1.04072090035548	1.05986749404883	1.0824143444068	1.09489053170128	1.07426341630396	1.0679649490975	1.04072749033991	1.0472294487409	1.05624588208042	1.05048514889864	1.02302351178523	1.00030602285697	1.00638193989899	0.991532700787167	0.991412268389374	0.986639059789363	0.954344776709871	0.952491570224215	0.963356522269225	0.962794882775594	0.949920910812072	0.952155770849036	0.953259333499849	0.985769638523003	1.00595571438251	0.972576328513076	0.964924537920656	0.964037435658249	0.923758999409535	0.958237774055298	0.945306607930741	0.93587386330926	0.939108282787575	0.947085465568243	0.913920670482142	0.913117885025752	0.90235773051312	0.901055762601612	0.900623667740393	0.890573899799878	0.892930906355735	0.910301522955827	0.899703414178127	0.899278141731906	0.895515086747564	0.889909285911587	0.892779261678511	0.891311378989518	0.882852054659511	0.888042677583452	0.878956866246814	0.897240215210474	0.920582703055867	0.917753716185856	0.902705396785142	0.894640852049175	0.869361457040825	0.875883021404196	0.890012259123118	0.858703852092972	0.844282198663625	0.819829101423436	0.828054961490845	0.817356288307137	0.807994478574904	0.809498733669851	0.78058899732331	0.779583800232384	0.777479922456291	0.772771625274076	0.758393398312627	0.7911902850958	0.784810013857335	0.806344411968062	0.802814335661928	0.771198626246196	0.770150024044961	0.761700157624713	0.730947205179184	0.757269775027858	0.758743594457697	0.748451212287888	0.746327787681049	0.752018127168316	0.723241634595347	0.725904987988965	0.727143955227495	0.731858844627983	0.725105674198227	0.722023303716871	0.721453645151603	0.735130946467583	0.721877171172478	0.739611604783174	0.721027933706159	0.711030380392107	0.720647763412709	0.717941280168497	0.714393076918624
1.06063971977583	1.05263197253456	1.05923825123951	1.07648515600314	1.05357881694328	1.03228112780458	1.01936003359165	1.00909088487893	1.01418676612291	0.996927656031291	1.01374635140017	1.00237023185404	0.992285066462667	0.995070084854552	0.974150811774073	0.947703398874178	0.936819630672552	0.969175663996759	0.970022039942371	0.976886048377372	0.967497451571131	0.970756037575365	0.963910245713138	0.958247462799538	0.973734520895131	0.960948561732312	0.973871719863638	0.986996267625939	1.0108048742167	0.997916567002457	1.00093345513838	1.01122338919242	1.01717011019913	1.01207197879958	1.02029587634845	1.02930074490122	1.02697118846228	1.02903242682361	1.04179530764271	1.0334741472686	1.02361335924868	1.02600367125854	1.02298199734733	1.01290284489093	1.01009964513151	1.00445314238975	0.983846615601357	0.977478816369596	0.979226935749967	0.980445726930741	0.963996654180418	0.959988435148615	0.970508525996544	0.982587094918225	0.953656362825721	0.940453732109151	0.927537456666659	0.918464518281467	0.912354749130758	0.899641266869095	0.916420913665676	0.909228429540003	0.903261532539484	0.9052131991389	0.887385584476773	0.855904548214568	0.851584801316333	0.872732983774651	0.88278483613206	0.881624872936222	0.872144607188679	0.867896281558513	0.85997163577312	0.8624886711631	0.867404326251064	0.861444919138508	0.885662085533324	0.870428673642521	0.896703741009592	0.869875116445469	0.866186275006539	0.869989838641506	0.884784531833262	0.894038171845249	0.893810762839186	0.899976607759435	0.902851494160683	0.90232714311269	0.920172374395263	0.910739730426572	0.903500877173638	0.908771995424236	0.913002857501058	0.902812351898743	0.901677818966355	0.884745278571956	0.870285194203949	0.862270714167622	0.853165885451802	0.863736448461765	0.844252602175427	0.839273330520836	0.845221307950539	0.849205273111839	0.819601604013105	0.803619016772838	0.792598679136296	0.790004931361632	0.772202085434272	0.765967022137836	0.781409930153654	0.767001570316055	0.769248434240759	0.767828643653632	0.746471722237791	0.729052329932734	0.732702851433989	0.748495652191928	0.741255184010148	0.73470556100143	0.72875660621915	0.734007511098779	0.72548345004476	0.725058223228176	0.735127350874357	0.722746747151542	0.742655951217174	0.728014166581129	0.754783379594096	0.725487128504129	0.726081630562645	0.737952933092277	0.748281660801197	0.75606028325049	0.755813910432823	0.753508893509769	0.747121037819819	0.751899612050445	0.765529333970572	0.743040835787667	0.751239832886258	0.756995529060476	0.752714933414137	0.748439760196512	0.73013710369282	0.72958081056977	0.720274655754082	0.705224440897	0.702359217179265	0.708396798592909	0.689551585458667	0.682451362703247	0.693332864037031	0.691683776927462	0.674405106405091	0.663144538068212	0.650409279882088	0.644105200674421	0.62924274967329	0.62607757536859	0.630387897047672	0.61356541734774	0.622328307788613	0.616313108558949	0.605177842819123	0.577421729356057	0.589087915063614	0.592306659889858	0.593596031170877	0.589158535072354	0.586027678139506	0.592953573807599	0.589127500608578	0.591936687308975	0.592417444241306	0.5797317656625	0.591991828290428	0.579173498274281	0.591752598359521	0.579150449228945	0.580540878619162	0.592139536744733	0.578471853142542	0.59038583950964	0.578640157650572	0.582709346568073	0.578938427950807	0.573858323818504
0.866195928658842	0.883088069343229	0.869222973420098	0.867709242622406	0.851453042916114	0.841654142536112	0.849374033690412	0.840632088403263	0.840277825299621	0.81242051788552	0.831016199203381	0.820316036288114	0.842920498214322	0.844190751445793	0.830332743041739	0.811640331204127	0.798233759689026	0.820729881395685	0.82619573772178	0.804321135968535	0.809120394169005	0.801877206022288	0.797379553714971	0.783521773196504	0.775258392074603	0.756436210185279	0.738383785992749	0.750744432859818	0.763499563091156	0.780473039782491	0.770631560185191	0.762359937822713	0.774040754638298	0.764220590299806	0.773897200864445	0.760582582210249	0.771623363907867	0.790369604560692	0.78241160396594	0.800420952266288	0.779889943908378	0.78846998471418	0.768585504456191	0.771871583753615	0.781421777946089	0.779846887283595	0.786484129697069	0.801559656329254	0.806431025101335	0.788098256383447	0.793915511748851	0.795178166161258	0.782154175582867	0.784832103236547	0.764795752703886	0.760204031321218	0.770369649144828	0.7519529694191	0.750592202348114	0.729172376254836	0.742185152448211	0.736105108615984	0.752936700599142	0.764950753728211	0.743685418524863	0.737688618996812	0.726014489237918	0.742631865321415	0.743784557084855	0.722922923440848	0.73607254926025	0.714448865883389	0.714188837101427	0.706420332133556	0.682851404913734	0.678256065115382	0.657427452876551	0.668656495326906	0.660677369104079	0.67445077918402	0.670904920657498	0.658477446906311	0.665129872138727	0.659670168927567	0.667562000561866	0.661031406690773	0.665176580637468	0.686923012879031	0.688864842583787	0.695531044660215	0.683842730129226	0.688708729392169	0.680294882612189	0.674565780332465	0.680392314353743	0.667380673292909	0.67751559538456	0.683158122764995	0.694610499872307	0.674575303043853	0.669714056755855	0.681522675484846	0.666097809261151	0.670383481464313	0.654695484742248	0.658974096106096	0.664866974934443	0.646225274751749	0.655383481647767	0.630577230078536	0.640960100402461	0.635591172051684	0.646840499208712	0.658211518080415	0.637521546550309	0.633629814083264	0.618174430057063	0.634093275683202	0.640243255426888	0.621732611010783	0.630289301165447	0.615569173120633	0.623817817167896	0.602430320168711	0.574398415087054	0.569590464954131	0.551183748282301	0.558347763172129	0.558364720549725	0.576559212066568	0.564522633233599	0.56093312731334	0.568608655543097	0.564682592399746	0.554609267871218	0.553709790590425	0.571579933820831	0.592566493294412	0.597571495447651	0.590173942287038	0.580508597044471	0.581070899590059	0.567752762527121	0.565125049033063	0.572232569907523	0.557544137251734	0.578198206620942	0.575629257696873	0.581958020575083	0.561331224048387	0.549592198112394	0.557020251913817	0.545441303712989	0.548106410624899	0.53479083759827	0.535077046967439	0.548459536003242	0.53339767772034	0.529958950785196	0.509926973113405	0.528726005036145	0.521553849840582	0.527954453215556	0.544912425133714	0.522943485980812	0.522186088354051	0.507685904575265	0.518755846277637	0.528618351302015	0.502941583296458	0.514381834607019	0.510977703738961	0.505063092741968	0.485061282354475	0.465216592863698	0.455539510752705	0.454084005785466	0.450910715982873	0.453737642874322	0.46226784076899	0.451017275904903	0.449910149353241	0.457725981875827	0.439904804429212	0.438866946630545	0.443319470934529	0.457478225960856	0.483209521107359
0.63707325471177	0.626869479702884	0.632303919075993	0.619323369785433	0.620028456078936	0.603919612813786	0.609192476984334	0.621455948605696	0.635279648115239	0.641565487795063	0.641260752966505	0.639662960064607	0.642525222079678	0.644416032034522	0.667638722185616	0.685595888509582	0.684345771712699	0.679429096478016	0.686431543167815	0.670892190194702	0.642234624846372	0.632464471657234	0.62440466292727	0.616790946875293	0.614200893849587	0.624066458245701	0.608556844655219	0.590209999906901	0.58138133673805	0.595685160461683	0.594892568465435	0.59689012112047	0.607425853001019	0.621734653671964	0.624938572832241	0.620350189381949	0.623620441325351	0.620991790589416	0.61979923927878	0.622668807039033	0.624618024095879	0.625690932221714	0.619005726770864	0.621617152439236	0.626316391690507	0.615645134782896	0.603748449967842	0.599059797708733	0.608213205891828	0.592322481004103	0.591833571527559	0.57226406491242	0.569656936194555	0.566730245512055	0.5656861500268	0.545624977164758	0.553361943135657	0.55946579115522	0.563078287858327	0.56921286965437	0.571569142474651	0.562819921381217	0.564464878111768	0.568259806929974	0.588583037633349	0.606201552961045	0.606951224697846	0.6130664491058	0.609789848113579	0.596850577206499	0.568628861217037	0.568138484413688	0.556923254607933	0.550484189628628	0.545668597224484	0.549078788748784	0.53169452201895	0.517675391649806	0.505419028749201	0.523695117059128	0.514796485346029	0.527899719266572	0.546935266105285	0.548184716807446	0.554390098895401	0.560920760253313	0.572004746757278	0.567524986730875	0.567754270107636	0.566497163232631	0.567170893338643	0.568090830898504	0.562771746022141	0.564509281188837	0.563964051979382	0.547677652837961	0.54314067839618	0.543295600323485	0.54553455279342	0.526197633315833	0.525515045364022	0.507166971452572	0.495818760377581	0.494575408654972	0.485519143892775	0.470258677485137	0.471394148020996	0.485699011360991	0.482391776245504	0.483405610791357	0.484431212492975	0.477160709089451	0.478654358913596	0.475819326368338	0.496196919092305	0.512903029375423	0.515056688838171	0.525662877186111	0.515194037196116	0.508327780756278	0.492086321406309	0.483144297751446	0.48012758830137	0.471423401241083	0.47135437379536	0.482533679344249	0.468999422937975	0.448324065732649	0.437130425141821	0.45924322623004	0.445491405825051	0.463902447607243	0.47631360316033	0.474745819939551	0.487667047957343	0.490259045136264	0.494442517278715	0.485028287385738	0.486418759146379	0.487031796506016	0.488940852652378	0.484558665682214	0.467371194000246	0.462601920902761	0.455816630520489	0.43891613861323	0.437500013999042	0.430975685380643	0.439557976567637	0.417702429897761	0.413560041306732	0.396673662296214	0.386351917983549	0.382696613216134	0.371812810775394	0.362762343121277	0.366021388471288	0.381601692845901	0.378618337262352	0.37983986250663	0.381970263998387	0.37812359728204	0.37947139121286	0.375081485768038	0.401631176508129	0.409765923016228	0.422159355977352	0.437064140837288	0.418258036566652	0.416014244811827	0.39872578532156	0.389137525031902	0.382219523470052	0.381398576383902	0.37937182392044	0.386269727321237	0.371535543100522	0.352187451301035	0.348852061895804	0.367176166387549	0.350310978506159	0.368149348002895	0.379042987953186	0.377071695552586	0.376660315276251	0.378233947678931	0.391022621638943	0.389962329734771
0.509102069378824	0.508918340741593	0.499819660848951	0.505313810566139	0.493875790143551	0.511685725325845	0.528573858328083	0.531940126122562	0.523856348125292	0.524455583838248	0.517717599714936	0.513252873401852	0.51910199801109	0.523119510661336	0.499701532534756	0.493016454907395	0.492941226912157	0.473684692219929	0.450677904430658	0.443973726508586	0.424276260532413	0.422472915630285	0.417756157408751	0.431511539260311	0.435520638365617	0.433947586362509	0.439094918660879	0.455837199336767	0.452789878337675	0.458728528519637	0.479324874058388	0.485836663876111	0.495152503933046	0.505189901100723	0.51839161647114	0.520080953086549	0.508679337104584	0.511148561692012	0.511201511347385	0.50613001949322	0.49299644402937	0.500776316593168	0.487038789065939	0.474484230923064	0.468566662257818	0.469152406178486	0.467154703613644	0.455068333796652	0.444023395508669	0.440065394409327	0.444626162017581	0.445831606602345	0.445257830651328	0.446551310012089	0.43538902953524	0.457174176181694	0.464900545671009	0.472015483329218	0.45583391674995	0.466489172703327	0.463472874089356	0.457735007637747	0.456662201114216	0.461620313593888	0.439596897765849	0.43976141927182	0.438770236620321	0.4131554995197	0.394118151453166	0.386031524915093	0.37463714122991	0.370962097525234	0.36859967019158	0.384290575701002	0.391948154983842	0.387074874960277	0.394392158213451	0.412853711803896	0.400181006888302	0.40386198982458	0.426799323304268	0.431365169496226	0.437988437895482	0.437481655860206	0.454757170267641	0.456385489129849	0.440507740007903	0.440952118185814	0.443977137857899	0.443715268819328	0.442363031991643	0.447403665736492	0.435112871523859	0.424467098395846	0.413027120506019	0.417033135948538	0.418141419408759	0.40699244647723	0.397309271231445	0.394161795249795	0.394821285763029	0.393266431900694	0.390891148476891	0.383529866477373	0.375981140373971	0.401891220566993	0.405928932379987	0.40351500555088	0.388254665193487	0.395286184351507	0.391681524860914	0.39020530916205	0.392299951261241	0.397071933643518	0.378394623199665	0.375023338603831	0.369269905314232	0.346807484401635	0.339156012822032	0.332959932993448	0.329324918030784	0.324419963693058	0.325644699850493	0.334878181082927	0.325066559106609	0.323472962952814	0.319622433357125	0.333755063210553	0.326367430577165	0.329086825045854	0.350884069715981	0.347678060591867	0.351096058036654	0.343601710618053	0.365064512477518	0.373372461106503	0.367591341599315	0.364851734839305	0.375806944084841	0.380903996037433	0.376035749925973	0.380768455961552	0.365823646171792	0.357253485283587	0.348056613310208	0.353058962686644	0.347861170985406	0.337165928046443	0.325140828560931	0.327906539671076	0.326837906399473	0.322361331233063	0.319969068734851	0.309890588374069	0.307694293499353	0.328440713468506	0.334376270505633	0.334333322980025	0.32430429409466	0.328039845961963	0.327536143474257	0.328439625967311	0.330044024051186	0.326691350409128	0.308547533938847	0.305297021339259	0.300078875120496	0.282266368446904	0.279461601101958	0.268603103394322	0.267090350881834	0.255656699471549	0.248770683468824	0.252681434758199	0.254450158736543	0.248566993460042	0.255906761328621	0.27417761211855	0.268005070648315	0.276546886777998	0.288487452927468	0.292461187023371	0.287705665547864	0.288488667125936	0.310128445598348	0.31615188356727	0.30428902880744	0.305301700320607
0.429700602286874	0.422624989157527	0.417298348833684	0.401855940224459	0.401527533896189	0.396749582264783	0.370257235855213	0.363797698999929	0.355195911172062	0.356097542278281	0.355081984086387	0.350311764755411	0.333744365676457	0.325248619240996	0.323115960933158	0.330506347990013	0.32916427799349	0.340278210787452	0.323783636640406	0.321877285916774	0.328857728407765	0.327597588197456	0.316008647841543	0.306983918168242	0.312152779799293	0.311182529127602	0.313730373920484	0.319989391601443	0.331824663816645	0.338548295946076	0.344389141523509	0.358472086586182	0.355896901189581	0.347375590534493	0.362208614338584	0.363140130230937	0.374176890035391	0.363195877218121	0.374745085069081	0.377562250400463	0.373313084666948	0.366341100532656	0.348645933611394	0.360704936043094	0.37776542827249	0.375341325346292	0.384356707439548	0.377866620149586	0.379854224564573	0.383510992822743	0.388315288447302	0.384141059785927	0.376018433648854	0.362180697409556	0.358232056955267	0.355624617647587	0.328650323775056	0.322364192681119	0.316685129785314	0.315037589615921	0.318177934230355	0.309915752987862	0.301514879430758	0.292054549076902	0.2850620778294	0.292239440616382	0.300351809335136	0.300804883169733	0.284244790555431	0.289400459165678	0.294749286119404	0.287849957162425	0.277410265805663	0.267578634575939	0.276914683943741	0.274106882819353	0.280557282018581	0.291452150184608	0.293871137422088	0.303972773482066	0.307383463481334	0.31962310799578	0.314704390388282	0.3085179161385	0.325200488665721	0.325915047992918	0.33083579065409	0.327869214157094	0.334302856043907	0.327473495124719	0.329217648407361	0.322583260433235	0.303725877064616	0.318758427782657	0.324684687005236	0.321583739284628	0.326900813625083	0.321620684449941	0.324727047702659	0.327388671491628	0.329744501057456	0.32839072936959	0.321809714507288	0.310558986111594	0.308006648666768	0.300506244414028	0.281533450803554	0.276597179813628	0.268181485660535	0.272263576191277	0.275194608081301	0.262340701692909	0.255706386861103	0.24308184141031	0.243995025801765	0.253302983438397	0.255296121221269	0.253120443806494	0.243586296983865	0.251379865581329	0.257443466390159	0.248987540844615	0.240149924610761	0.234591645994816	0.236494019104241	0.238973588588193	0.242381226068284	0.253548411966609	0.257964327735671	0.26909132633011	0.263853095572357	0.270784562403854	0.267363985314274	0.258029929673405	0.270721687176122	0.27440756759097	0.276607548670888	0.272990436480732	0.272855045842169	0.272534968591107	0.27555149321568	0.270245544516705	0.260178866084515	0.271100815940087	0.273585020278912	0.277873209783456	0.283820251273761	0.279199932124473	0.283908851506097	0.285417845538943	0.284196237470452	0.283826570474886	0.279182509003031	0.271044483052861	0.264406259397521	0.25365110785324	0.240264275426915	0.23240313548225	0.22842904267921	0.231794072238531	0.227939142737455	0.224470836967358	0.213954672817329	0.205119619662482	0.20120508673267	0.207577346760863	0.213178672270858	0.216696775639684	0.208178965663824	0.21913930920502	0.224204878160521	0.21727471101997	0.206736682056505	0.198326792267915	0.203772382554386	0.202869774142452	0.201780764176009	0.206962017810375	0.211915936333125	0.207383902727248	0.203247116844506	0.204917287023367	0.201510498718383	0.192913516096193	0.209769437890763	0.211112998897485	0.213875770924719	0.215155008873382
0.318695494935229	0.320501017312115	0.322054369510301	0.32472353675994	0.32105243024447	0.320939024558672	0.315870334487451	0.316554985466741	0.306876229844521	0.307374653878332	0.305661258612895	0.321984253665141	0.32936415921443	0.334732318016081	0.333154922013422	0.331636105123134	0.33351150534362	0.336548690541195	0.314590352004486	0.306005575132625	0.299501579686476	0.301467615358057	0.284350961852038	0.291927753287953	0.278501403659427	0.281020575192638	0.273942154239141	0.272383114737236	0.271615846996873	0.265598222232025	0.265538183754967	0.269610125014346	0.266940045899657	0.278928486788502	0.284349329211132	0.288433583676396	0.279044519871984	0.283414969003644	0.279766763608335	0.273018268827986	0.277312992999165	0.278153277662898	0.282942224573483	0.296021538511965	0.299988795201206	0.298630261437411	0.306254815150968	0.301823506361918	0.300617505063248	0.291066467724635	0.284361285964428	0.290738427180743	0.289966974754939	0.296726859599946	0.292193566966974	0.291637110072505	0.291171078029543	0.289820234658804	0.278951665278992	0.282748109674806	0.277508564294256	0.290327546143117	0.30161326278218	0.30541961317968	0.298075729937943	0.298802001272942	0.296832313926468	0.299118979362803	0.279267581239307	0.272267583143674	0.259195548261643	0.26294096969714	0.249937662729046	0.25917732582252	0.24379701836624	0.248876747694073	0.235291592949394	0.234973337798326	0.233769478437709	0.234702433523401	0.234761735217088	0.235489677931661	0.238485194593079	0.245740548901186	0.249493855558457	0.254017674626427	0.247968697798568	0.250580611930855	0.248408637097471	0.239354324731921	0.24590793403844	0.247348110459544	0.252722369191997	0.267469667713081	0.271685677824987	0.270320573373325	0.27301092354287	0.276115709039508	0.271869640222491	0.256115441954	0.255714341024937	0.264723223211653	0.258942307213576	0.260111263225302	0.25079123407102	0.256496166852259	0.257660832750201	0.252378045445332	0.240000422450609	0.243077436408709	0.235641737557705	0.249301989827816	0.253009477123198	0.259321754040582	0.256412868624429	0.256675507344651	0.255849019451222	0.256564722858692	0.241450101584927	0.237938229037387	0.229450027536686	0.235917851586341	0.230512740785702	0.234844071965877	0.218983369152816	0.217608234622308	0.211845234043779	0.204105704485231	0.202583753458161	0.199701838461901	0.195207034735883	0.194941517057083	0.195091147056524	0.194903311022859	0.198017380525896	0.201772281538782	0.203074784409597	0.204224514572476	0.2025779116122	0.199060043561847	0.205614331373128	0.212096849945463	0.215381992810369	0.223709114981826	0.233380321417108	0.232949007856476	0.239881858173267	0.244373940114143	0.239188669841396	0.220670685229417	0.222372535627666	0.225775828962469	0.211686991309887	0.210805519843011	0.208826054948243	0.213074392902847	0.211892535203723	0.211024439623267	0.200283344218994	0.197928985354551	0.193690255251645	0.208786136449391	0.211667885897569	0.223258860499782	0.224957774442009	0.225180551060836	0.22497427891112	0.227595574792076	0.216119834442715	0.206855096168481	0.198192501089811	0.205547773388593	0.19718272340449	0.200343328961165	0.187822933688316	0.182965647536702	0.180165116215655	0.168860110923667	0.168171552219057	0.167650011873896	0.158051201842646	0.164430809077454	0.155571886059352	0.16306462474215	0.165236699423684	0.172065238900195	0.17168012744643	0.175727869624611
0.214912855960791	0.219267738206972	0.212365679550055	0.213455564065338	0.218575143225223	0.217499787631072	0.206481768360263	0.209398473010535	0.21731808141921	0.207550223204509	0.208230801137469	0.21446112707015	0.215721864425147	0.209538401348654	0.216229957986824	0.219220860841653	0.216786596941997	0.215525304249652	0.216012149509171	0.224887219802403	0.223320880236219	0.218659639157633	0.225741887663186	0.222786072597964	0.224925984146804	0.212842567685301	0.215409415700586	0.211138989623219	0.210605309629816	0.212511597106244	0.202626834445701	0.206585413938486	0.208698718717343	0.209104695663575	0.216110999895424	0.207478411249102	0.221604593797074	0.221059154376215	0.223764703074287	0.217287987367726	0.217380453720156	0.221566745756669	0.219030534424003	0.213781939842237	0.213769007043635	0.206475013065913	0.203886636879426	0.201834427150105	0.192777578982874	0.187872919013024	0.191676647222209	0.195392729937562	0.188990467044261	0.190722981909673	0.192877585378418	0.193047957476256	0.18635948590082	0.185936073642342	0.193849529084655	0.183385190234948	0.185007245104615	0.189084205961553	0.19086539538092	0.181977628897235	0.187917865056804	0.190984334796394	0.184768759802012	0.187559015729008	0.187956589804303	0.196463623979097	0.192884912898934	0.190442863139828	0.196519108303477	0.188924755748285	0.192840159532022	0.185581417928691	0.190213429785275	0.185771484942186	0.186007574316387	0.190433433368247	0.180895504661687	0.185179566426147	0.18317351476875	0.190029877689963	0.189272598223162	0.188106804445857	0.195016018587617	0.194263955606969	0.196030173055156	0.192263731227426	0.190470111475989	0.195877890273272	0.19007869890679	0.190980993552696	0.187213620847528	0.178090445325652	0.179700134280521	0.173634802454825	0.166487677040071	0.161545725026229	0.165727384217461	0.169021494006288	0.160708526401554	0.161806693194778	0.167819114296169	0.164249932880483	0.160543571891018	0.166941586103967	0.165824556019628	0.162868421858816	0.163996101587461	0.165668910912661	0.164148381033853	0.159027779453877	0.162826292806195	0.166220089108912	0.160384076945942	0.160027414012691	0.161894201415737	0.169814977544379	0.167394786396963	0.168840101459086	0.177735819004889	0.171124872078575	0.171761549392473	0.166819298497553	0.172551703580913	0.164199737575929	0.163221423011263	0.164916371315249	0.157779122425727	0.158854525612196	0.161920586592503	0.159998754609214	0.161649514520691	0.160124038796056	0.166640280453346	0.162499965371832	0.166260116626399	0.164313700012249	0.161461244597983	0.165691944104278	0.162664803654522	0.15936366601349	0.152270857653369	0.147250236101597	0.144857380391748	0.1395241217109	0.130847447283838	0.13060618401821	0.131953189774838	0.132486302971256	0.126696682799215	0.129710386917318	0.137581830050595	0.130238864468935	0.129055954848901	0.132852525143739	0.134078989385218	0.132466744035623	0.139550900953408	0.137432381500516	0.137237231304351	0.130806413143013	0.135824052747022	0.13876364321861	0.131838985267643	0.135208758625765	0.138453771202781	0.142935211671316	0.139761130150155	0.140354966182638	0.144546759305622	0.141023601540381	0.144723738980754	0.136342412010474	0.142823073874627	0.136708081896211	0.130676341390066	0.136244239738993	0.128930483461435	0.134451454353441	0.132079261175813	0.134882586898278	0.137735586379722	0.131750246932923	0.135795671037446	0.135603910192957
0.184977805037913	0.186098686372022	0.180275776588256	0.178823464577421	0.174931270306271	0.167245329607214	0.166015631982925	0.168722450862846	0.163044304032878	0.161556804874111	0.166707612623439	0.164054466942506	0.168219783365316	0.159715445613172	0.161500148361244	0.160854375253576	0.164317741123569	0.165662825822985	0.172479090053206	0.17849395030323	0.168632798728543	0.166216531427932	0.165705953200279	0.166638091006498	0.166150223033279	0.170962885754256	0.174482695734923	0.18625271061864	0.185631086710051	0.189259188726422	0.187734669519204	0.187023829346983	0.187844862167	0.189348013432218	0.199866899524125	0.192201530027708	0.186744063490692	0.187245442295678	0.179048881973205	0.180182746785803	0.171061537161742	0.173560230510096	0.173048836488427	0.171419817980481	0.168936270580988	0.171676865974346	0.171392647085481	0.169755404762376	0.177560165532836	0.174486536012802	0.175925679021046	0.175889036489674	0.168610873420209	0.162736595552747	0.16483199005299	0.155688478686639	0.154610119058722	0.155225812753025	0.146904799851913	0.142699871421366	0.149677536757085	0.143386790927612	0.14530508897958	0.142036376396437	0.140608926010786	0.13898398772763	0.139679027102973	0.14145978809486	0.145887592147867	0.15063830611159	0.146441977194075	0.142810343114679	0.141384315571729	0.141723091187025	0.138161684682661	0.143109217247455	0.145819302849572	0.157239334920851	0.158376920195401	0.16301748487029	0.160684133779122	0.157181740426743	0.161226690870481	0.161600070520027	0.167257476161049	0.168667270317586	0.161971279414403	0.162804196622474	0.158732984027666	0.156434538275239	0.151969472043095	0.154568223734019	0.15468586295218	0.150944596804692	0.148485254129125	0.153022808860793	0.149555825245433	0.146005851539723	0.15303450082588	0.151278478954425	0.153406172254049	0.154348921447702	0.148550471324029	0.146058123181823	0.144704308161185	0.135861023922515	0.133149532650462	0.136763838102532	0.131173344454993	0.127090828308239	0.130804699719317	0.127650615007586	0.130483518924447	0.123479835730472	0.119247280784565	0.116810181526193	0.118890654639492	0.122054853394668	0.128759716852826	0.131060952335783	0.127425323737711	0.125492772183562	0.119657837475781	0.125175795664678	0.120129491680471	0.122938509506302	0.128220448299433	0.1316601867806	0.129269917520189	0.134447418303913	0.129809939274714	0.124919030367662	0.12480962352824	0.126735401769371	0.134249841484269	0.130986512211599	0.12536807657885	0.12908274439662	0.12243588446489	0.123371004055076	0.123456320230438	0.124135147650557	0.12727613407793	0.124141211874531	0.12347405970896	0.126804762641954	0.125042295587081	0.120087040595159	0.126045778268235	0.124963120682948	0.130245419597061	0.128511716858768	0.123523429010297	0.121586765312594	0.121106149167851	0.110982040063945	0.109236176474586	0.111636376454153	0.104329911659753	0.104442868260964	0.107268530120884	0.105525191375382	0.108172679246373	0.102308860526454	0.0997108756936013	0.0967089291353667	0.0942639566162783	0.102007330563227	0.108949867945685	0.113242141715889	0.110314383257335	0.107598023730519	0.105401801202995	0.108164364751166	0.101143519432415	0.103761789633936	0.107374749193553	0.110894574737975	0.110303504573132	0.116197949123723	0.108246553381293	0.103978326416058	0.104714382112266	0.1064492276626	0.110874266634182	0.113011909696591	0.106320049715613	0.108906676179278
0.151226788081346	0.146031547010044	0.145526666654739	0.144153121967788	0.142465831757554	0.139475342409332	0.136719199995392	0.144566258027329	0.148199353555644	0.147091616734465	0.152580569655225	0.148629627967263	0.149098262999099	0.151297262946548	0.140808378434982	0.146437293516383	0.150420417035818	0.147845984711039	0.151312631319548	0.156128713748345	0.148333760327374	0.150902822918256	0.146642953883822	0.144507107906532	0.154385606259618	0.156583715376149	0.16034804332439	0.162226710313445	0.153845848530238	0.148817648651455	0.154701476633049	0.146621217410998	0.145920004689399	0.141742150421005	0.143017918851146	0.140206436779641	0.139981932346401	0.135516770125021	0.14591184863607	0.147209780789195	0.146032489898856	0.155925678538995	0.152260315735793	0.152488894926223	0.151579686730206	0.155794796638166	0.157398270968661	0.153397928835095	0.153244354927702	0.152190484804401	0.140735383427288	0.136230955689657	0.13410862859637	0.137775862248263	0.130766587601132	0.130513338183716	0.128642061745541	0.135101531865126	0.140097577147221	0.139607033453265	0.143048438264749	0.137617392391042	0.13893478287256	0.138737613058072	0.12872185640963	0.135280723996793	0.135812017312021	0.133027675482933	0.138390272430888	0.138228172871596	0.131995363200923	0.132590932125165	0.12934383322567	0.128663943187709	0.138734494559679	0.141335670607032	0.141769727216505	0.144352836472231	0.138431517607754	0.135108719693112	0.136471222972871	0.131104460548414	0.129281399608746	0.126420354163562	0.12816235866026	0.128508894139808	0.127727312682137	0.12427398375118	0.133436770608647	0.132996266200433	0.128062081929085	0.140842770724191	0.13409116474551	0.134464537048776	0.136889022370919	0.137494773996907	0.135841929035467	0.133323445066461	0.133488968892654	0.128822037140714	0.120945743631604	0.12071752088048	0.118331409298039	0.120076169242248	0.117788821322808	0.113515747717056	0.106287252550415	0.113525448838514	0.117174376653002	0.119514604433465	0.119880577864856	0.116483545166549	0.117367325668148	0.118709886445775	0.110532858888277	0.115668874710598	0.11710506152401	0.112145712496747	0.116159367236559	0.12166697997387	0.119232875823607	0.11331062185225	0.109799134718084	0.110789511859735	0.122473751494264	0.120610101215811	0.120608047711105	0.121471587287528	0.118435814955768	0.117105090946697	0.11987857590008	0.115038844893429	0.114261135335354	0.113403335673843	0.115980009224297	0.116425457795633	0.11618826729878	0.113856317804949	0.118940729417626	0.118924107634319	0.116758469159548	0.125370747499557	0.121730467748426	0.122754794858658	0.122031948843645	0.120137613509705	0.120739950756041	0.115965239811905	0.114043224085886	0.113436288300479	0.107413213132106	0.104991746879925	0.103531180848193	0.102119779800462	0.0996741508044263	0.0946679144851299	0.0895769551127683	0.0953001186778264	0.0991860043921491	0.0986607167757477	0.0962441670029218	0.0952017001538984	0.0953298400338742	0.0977189874673777	0.0886168461618404	0.093111591493203	0.0958915782492013	0.0919275890726103	0.096831497963005	0.100722007883452	0.10260336193751	0.0950316535898946	0.0920802007459427	0.0955122432413388	0.102005621576605	0.099786697829283	0.0959629804914746	0.100204471002657	0.0964364866659309	0.0985306247383369	0.10200287121734	0.0920062618808133	0.0925945697778697	0.0938622911911582	0.0959553105026269	0.093374377833915	0.0934860190646299	0.0928639929198542
0.135065178961668	0.133820849792284	0.133517120566836	0.139618394270575	0.134971329473517	0.130639362974141	0.125834637785153	0.12350572587656	0.121872172458316	0.120737863546144	0.116794267584669	0.116480785262101	0.111178594658875	0.108145337226205	0.100749458372964	0.0958558595410777	0.0931771620857822	0.0918151359640673	0.0933604335939621	0.0989604079774916	0.0978909086058467	0.0994709914492601	0.0981779818323695	0.0992514934728352	0.0966440644256752	0.0931550451337816	0.101018103955427	0.102134442119587	0.103521349296274	0.100176347548245	0.104135837240945	0.104984710444357	0.103383918019176	0.104536818064229	0.0979661368366895	0.10297747335975	0.101919919010646	0.0967148878105574	0.103923420555134	0.101128978647727	0.100031943795045	0.103750989703533	0.103806428731138	0.100466555826159	0.104465141248471	0.101772152561474	0.101889550942912	0.108661003387314	0.108935023923198	0.111096488603453	0.119134502961914	0.115550966108557	0.116927022395085	0.121493686987414	0.118085714071385	0.111354913496293	0.105589283064488	0.103806549562752	0.101737030912268	0.103182642693141	0.0994246243411768	0.0994841051797293	0.0962869956896581	0.0917598364948422	0.086507597458695	0.0804463647024831	0.0769322434723521	0.0789995135060009	0.0831676778193453	0.0887055344239295	0.0914482668001426	0.0937104877728955	0.0880209553115859	0.0907433374695333	0.0880431504805283	0.0835075489843863	0.0927962539131678	0.0912974054475449	0.0906360664064222	0.0881020443598717	0.0928329342618584	0.0900527589914619	0.0885633309726277	0.0865610910972658	0.0824896824311008	0.0858930825030231	0.0867633181165705	0.0840856987654327	0.0893173798093071	0.0862321604491248	0.0866385943221336	0.0924297507551967	0.0934184333965286	0.0882746304549214	0.0889093331939695	0.089102933561501	0.0899376485418577	0.0957461582371791	0.0964465076379255	0.096405112189241	0.104692491853428	0.0994960125374159	0.0992665539263412	0.104719137210892	0.0984638874605651	0.0940814894563407	0.0897208147234767	0.0846111121407663	0.0873296019441704	0.0891094130711959	0.0839948582180504	0.0824046632419636	0.0796855061849822	0.0770607729456983	0.0769449164997219	0.0698835189921021	0.0696264930167756	0.0708154336528952	0.0747704012959297	0.0800959971498072	0.0826442749359036	0.0830531297011626	0.080763354300506	0.0839877935223864	0.0833118359727226	0.0779709150479891	0.0857701107671767	0.0792774650181406	0.0794257742583609	0.0757986868678406	0.0792149188715535	0.0753970408564839	0.0723847230978705	0.0711840453063685	0.0641550443811686	0.0671029864808496	0.0668970172088751	0.0627341555868382	0.0691193965739678	0.0688083326037922	0.0685118272215747	0.0776027593662014	0.0743690000400316	0.0730489682032326	0.0767063110196536	0.0733543477911845	0.0757448149877865	0.080585982291381	0.0794175098070558	0.0799338137314098	0.0831360987884259	0.081169471909795	0.0823360667908103	0.0839839887303188	0.0752853582398576	0.0721713998278389	0.0694167676018878	0.0638295916555376	0.0667270280299101	0.0689745773778426	0.0631613350406795	0.0620805430680212	0.0608217995795427	0.057200495907387	0.0568217725703053	0.0524237522965297	0.0552701313947812	0.053388043479412	0.0597034360799916	0.0629209611941451	0.0646825071616672	0.0672071616398443	0.0655501075965196	0.0695058119361002	0.0667643405142403	0.0636179875621434	0.0690813177123629	0.0634995208230971	0.0635022886004912	0.0628133286038719	0.0658709383636062	0.0630693957872287	0.0636060314967512	0.0607302320299191	0.0561721284932595	0.0573837818110976	0.057090644812111	0.0529238424236857
0.0869291020300597	0.0849690443398763	0.0895515320177975	0.0893135559249213	0.0848789754435268	0.0853541876990832	0.0828255973869767	0.0798861044080748	0.076089701133531	0.0766362398708758	0.0740308069697132	0.0809850616099216	0.0813718860824431	0.0795358785218858	0.0812662983579686	0.0760198589087154	0.079668180702472	0.0786621361903482	0.0774211705879517	0.0752095363601489	0.075896655170524	0.0780966076240786	0.0814000879614164	0.0828799430241429	0.0842160136454089	0.0805608732414348	0.0837373466668581	0.0839769142397448	0.0815571285548314	0.084451060296991	0.0862656575929228	0.0820637899100562	0.0846211424554184	0.0852284516028021	0.0873045944735435	0.0867287324609651	0.0882050850096501	0.0847590281258471	0.0813737655372901	0.0807634519212325	0.080326705223642	0.0830668786490819	0.0755106179213673	0.0817108290488081	0.0826698152926479	0.0823327999832006	0.0802041138831695	0.0824070942650164	0.0739912815452805	0.075296524079479	0.0761412865813472	0.0765833897047407	0.0793321620902747	0.0817754276073683	0.0781995657333981	0.0782877121777912	0.0753254355153186	0.0757974139279435	0.0708866707770841	0.0699723313965166	0.0689645353934616	0.072324703857837	0.074247164374031	0.0720068485149154	0.0728649882968506	0.0688343309929744	0.0711489665608939	0.0701386996948077	0.0697583807737508	0.0666834961695776	0.0694189319993911	0.0709436882372525	0.0740070151720981	0.0759593738492677	0.073836579831344	0.0752379622765767	0.0738413532742859	0.0745409096291456	0.0724357666345189	0.0755954519385827	0.0765762977619667	0.0732359732673994	0.0782799065431881	0.0711399428449383	0.0734187901217143	0.0765168738916275	0.0753408323442973	0.0731752705205803	0.0699907484387844	0.0693139952080175	0.0696384770219644	0.072591625811891	0.0650634106959989	0.0669662094590565	0.0699067822396037	0.0701702697394684	0.0703900325670604	0.0705720143454026	0.0607106792514451	0.0630273940679061	0.0650219609038427	0.0635651941297334	0.0675631557552508	0.0690132792945893	0.0652597512868838	0.0680299664669693	0.0655156542493002	0.0637936290810561	0.0618497983367354	0.0609354589561679	0.0608270261076364	0.0647664862194506	0.0642706065175607	0.065156364048531	0.0660181593003154	0.0628885171908609	0.0645396555536052	0.0641166093546094	0.062543430743529	0.0612636529588026	0.0610197877659652	0.0618817881991235	0.063037481877542	0.0649678286043943	0.0623606014437845	0.0620455233824559	0.0602070113345756	0.0614161821854098	0.0600606078545344	0.0652051724058987	0.0664312170020033	0.061674779724876	0.0660039641321673	0.0623076482024441	0.0647632153495568	0.0679174023503149	0.0671818022065385	0.0656256976173707	0.0623932108343063	0.0607965209324776	0.0590276204159961	0.0605908211180954	0.0552454197495229	0.0570531838971549	0.0585912241645583	0.0582811009643909	0.0578663423826931	0.0550708658287145	0.0497280365278767	0.0521338093828023	0.0528405202256162	0.0501806120095313	0.0541973198984875	0.054670738280279	0.0526858853393372	0.0541940369162942	0.0529771603552751	0.0522701660524977	0.0519713790472026	0.0518907911391828	0.0506985308887474	0.0558985139259051	0.0562727739518776	0.0569197391426561	0.0566068145657998	0.0574570957026103	0.0562191433194817	0.0517623974682107	0.051999416822768	0.0476367789209147	0.0482944189030938	0.0484041350980236	0.0487763964390669	0.0474008194740546	0.0472477568342675	0.0490339998757468	0.0465759536034603	0.0477851244542946	0.045320981966698	0.055394749872443	0.0564704486231058	0.053083706675698	0.0570991255755237	0.0521850533242198	0.0543170143756369	0.0555434882249528	0.0540794033557569	0.0526865726641707
0.0473553748808766	0.0498364591016743	0.0503673063887156	0.05285713233013	0.0519135450218657	0.0544064804079771	0.058028614726117	0.0562106525921315	0.0528813401358919	0.0524647382398947	0.0561445543204181	0.0583491647414242	0.0555419679858318	0.0579370163642569	0.0542830776243655	0.0525736638278946	0.0539669766215481	0.0564163843141572	0.0545095535516275	0.0552820608049971	0.0564813264451399	0.0594454833439264	0.0617964142915999	0.0669254770100058	0.0658216554841755	0.0668378731020482	0.0680882408522077	0.0670844956461256	0.0705493564458181	0.0672124694966686	0.0679490962502609	0.0668542104915306	0.0636327800296023	0.0667985217476282	0.0642795746948168	0.0592892665350807	0.0543357042804941	0.0580175452990311	0.0524287736067443	0.0519025034560744	0.0513320093424668	0.048529704294279	0.0504848492421145	0.0497551601642944	0.0473657005360886	0.0515682302209945	0.0478580154819285	0.0438786639934983	0.0445153068663973	0.0456292352153207	0.0430383466439037	0.04610046751771	0.0452369016385454	0.0458801814830746	0.0465411313078024	0.0472703115883591	0.0482588037640775	0.0468646128947746	0.0444533534488625	0.0453973329874942	0.0490771490680177	0.0496253520383606	0.0475524166848852	0.0494965506297979	0.046592961451856	0.0454103776174663	0.0471671217436145	0.0474837624942764	0.0486588163992987	0.0493374665968176	0.0514903119910197	0.0557108306047835	0.0544404778807582	0.0584997382387753	0.0584853670772187	0.0593444033120251	0.0597275412508924	0.0589180071489705	0.0610787355587636	0.0598679209562956	0.058748455790414	0.0578707636625024	0.0536343023351073	0.0564239508791158	0.056950435852816	0.0514676549155715	0.0480547163499786	0.0526268186630916	0.0473166070566702	0.0494665638783331	0.0479711406633283	0.0475526945994852	0.0477052691333598	0.0467891453987244	0.0454147166359854	0.0462497461164861	0.04349875233631	0.0391382701688212	0.0389680567779643	0.0387740259585324	0.0349712762200526	0.0380937370260468	0.0387618090266546	0.0385207869795785	0.0375144901337705	0.0371535595008522	0.040185852016341	0.0394432606800102	0.0379826024608619	0.0403120160042732	0.0428790943121768	0.0443922308222033	0.0439643392077535	0.0418702256413299	0.040564573678319	0.0394935454182494	0.0380240549274337	0.039649838991594	0.0400334437998454	0.0394890848133536	0.0411232747312321	0.0432940973305661	0.0442775230932082	0.0477980813982039	0.0472977885227004	0.0485281769868931	0.0482659255076973	0.0489275139959226	0.0512806459752575	0.0501176308030936	0.0477151016427932	0.0502498077648579	0.0463207013825745	0.0484041230422167	0.0488898962867837	0.0440919630143989	0.0421046690689012	0.0456536160630589	0.040369432078049	0.042641397498608	0.0414205862975708	0.0402588990861055	0.0398301850495963	0.0387145212430004	0.0351237319026681	0.0372866116826379	0.0338934108232262	0.0309602572831775	0.0305720720082394	0.0328587552750206	0.0271891153937896	0.0294087389585433	0.0275817377538681	0.0284186700806323	0.0264617720080604	0.0278322712442504	0.0308645637597391	0.0307226372794715	0.0285771313954636	0.030413155796447	0.0316327607254387	0.0347917991516646	0.0354970941381995	0.0343824816987005	0.0354070884854879	0.0339667054965757	0.0332089578794115	0.0343339396029021	0.0306048938721327	0.0308127798319016	0.0309105004858121	0.0324342407762423	0.0343275560365152	0.0364611967963409	0.0340577989917385	0.0380288560780334	0.0360435182222391	0.0371201132993737	0.0389091423598722	0.0377991069241806	0.0364309043655473	0.0403944389263092	0.0359914425337281	0.0394688851157735	0.0364321367005389	0.0334040277168793	0.0291501632364548	0.0335854171874506
0.0398732780176078	0.0384185874805471	0.0396864290874792	0.0428310072124177	0.0442069090953521	0.0442891411737225	0.0428602154069012	0.0425524406400969	0.0438778345268988	0.0431292774352669	0.0409364197535486	0.0463380079578837	0.0441384211443887	0.0483198342836028	0.0473683000605866	0.0467048365756882	0.0453635204466882	0.0431446113764666	0.0426505808860181	0.045726256107923	0.0473309589460258	0.0478010323350581	0.0501061024962682	0.0502264796008367	0.0519233772252561	0.0519919065962572	0.0535966760834637	0.0537799101935298	0.052346121525453	0.052893501041096	0.0520794819584501	0.0550156838160644	0.0547088027082582	0.0535269316006415	0.0544424963694498	0.0500876335300118	0.0479360591773843	0.0504286735125774	0.0497965339479556	0.0452606089564994	0.0423812218136094	0.0433316276965056	0.0458329161282648	0.0452717932855527	0.0439742030474687	0.0430552257070519	0.0432264246454213	0.0393865450954131	0.0407920652950706	0.0396304218234674	0.0358696164933923	0.0361528545122779	0.0360443684796544	0.0416976825581087	0.040675700058284	0.0405365024661295	0.039856988182369	0.0386695238619048	0.0385798777057753	0.0383411560613188	0.040386622982434	0.0420418927692087	0.0411990821084549	0.0445996666053248	0.0443779001628204	0.0420647322263484	0.0393050196710218	0.0382562468326632	0.0372036202729224	0.0396946505410485	0.0418843348901211	0.042108162709393	0.0429696484235558	0.0426722167206956	0.0411967694605579	0.0420310543161155	0.0436137319431652	0.0442788057859749	0.0436220369590282	0.0429371892941685	0.0410322361971028	0.0455926546975446	0.0456447454076139	0.0461943041691054	0.0472575496621764	0.0440370300025856	0.0433530529689761	0.0465832000931736	0.0442375074765289	0.0418068150225733	0.0389060486601767	0.0418896420728339	0.04461700358411	0.0436548700569497	0.0421324376265298	0.0408805675499858	0.0388855235905167	0.0359892217827668	0.0373947419824243	0.0371143401758378	0.0323701628513023	0.0322206600820883	0.0344246405715815	0.0389421159733814	0.0388183576655177	0.0362803920105676	0.0366292088393602	0.0345282129777988	0.0364949834497971	0.0348143002025988	0.0370132548008814	0.0377249468453978	0.0367861552071594	0.0392978106160426	0.038038034664835	0.0369019842657837	0.0330782345803425	0.0328363180057396	0.0314489782197808	0.0327944355940465	0.0372733416870335	0.035716730946469	0.0352465271655284	0.0346282589722272	0.0319303368843028	0.0351430023009631	0.0363835639671793	0.0383639573005181	0.0368520577815172	0.0361672101166575	0.0361857567923618	0.0388356932697887	0.0415265600412497	0.0415665870758908	0.0420850351230614	0.039019491229031	0.0390203618602812	0.0412841548605764	0.0388151071123527	0.0356035860160527	0.0327028196536561	0.0337221391286583	0.036934148066389	0.0339638285633464	0.0327091682528624	0.0318512882266778	0.0310340990664701	0.0286569948804643	0.0283612715277707	0.02889724729777	0.0252786834176827	0.0251291806484687	0.0258557299491168	0.031317808394221	0.0304639304161937	0.0288066559189814	0.029137911749038	0.0280746959907217	0.0277045878266076	0.0281933113121722	0.0304210968748631	0.0316426243665548	0.0278706167962421	0.030608445488409	0.0310625384075735	0.0304363234556975	0.0281235220827643	0.0270200623198622	0.0264942657222026	0.0272390582404051	0.0308209464790429	0.0305418034547549	0.0304915961806296	0.0284141815214583	0.0279034050794677	0.0305154056400647	0.0311070221523271	0.0321368142589022	0.0306249147399013	0.029184426453418	0.0299586137507458	0.0326085502281727	0.0338001986790729	0.0324218146938708	0.0341608322032632	0.0332258925879299	0.0325961870598488	0.0354299803605051
0.031409289813717	0.0319820831331264	0.0322858204886335	0.0313533074926621	0.0311428727295432	0.03227977018824	0.0315558300143514	0.0295568137248592	0.0311016595181458	0.0321329555146804	0.0318988914984291	0.0313340879307466	0.0326207879578713	0.0309100852123839	0.031654784890941	0.0301281527983562	0.0303644000198753	0.0337542987609952	0.0318658407351608	0.0341255873356568	0.0358581841167581	0.0392455086246397	0.0372097358346467	0.036376886284138	0.0346476407620793	0.0342411718193445	0.0361287109814955	0.0401852277286001	0.0423267567954838	0.0457751906039157	0.0437363586512957	0.0432221913312999	0.0425994063360182	0.0421159783662874	0.038122910870461	0.0387817326716988	0.0396233002806793	0.0388510005363241	0.0372709969528316	0.0365246609583237	0.0336223553494303	0.0316403800875201	0.0260056323671227	0.0258876908100304	0.0258619838694783	0.0246992375108697	0.0254403119696143	0.0268142438346032	0.0281105457591144	0.0271213598071649	0.0292598333768625	0.0293919065484762	0.0271586628360665	0.0271474351864819	0.0262352473336161	0.0281262257122928	0.0276115613713971	0.0260313264897432	0.0278886559928918	0.0293706402981731	0.028555287711538	0.0282594518454806	0.027051702692308	0.0254345100891464	0.0257101433131994	0.0250551692718468	0.0271922001176776	0.0299155342528803	0.0294996845799215	0.0304342844386759	0.0298139766506826	0.0330043890619044	0.0310645972493959	0.0314972237676862	0.0311900546525716	0.0315904419735927	0.0326711248719879	0.0364566484239234	0.0393790061331515	0.0418392369980191	0.0388332584515172	0.037170634803599	0.0377166711887586	0.0372118639995212	0.0345663999732576	0.0345624659697924	0.0358783110848649	0.0335423665461586	0.0310970720494704	0.0302780012234776	0.0262287769526538	0.0241660871447886	0.0202230558924538	0.0191463437277883	0.0210745670605167	0.0193305321315243	0.0194709417342056	0.0221082942599607	0.0235529756279751	0.0229603865599642	0.0244225946043267	0.0252495365446193	0.0243018053531325	0.0230998297648167	0.0246611430210749	0.0268010061091312	0.0252025143663316	0.0241321149318531	0.0247947613229665	0.0254429941557001	0.0241626001541983	0.0222130196920052	0.0237180110352964	0.0221008184321348	0.0206782347992893	0.0205330962051121	0.0226701270509429	0.0236799081341227	0.0244163951760651	0.0237530578198885	0.0251913092079083	0.0280471752102406	0.0275234961802921	0.0274627335561546	0.0254328576552182	0.0250524163338949	0.0264312193474373	0.0296160780433097	0.0295067643809886	0.0323018515467959	0.0306246236831814	0.0287711185040631	0.0299585314744191	0.0288330372672497	0.0255248174362831	0.0266770283799487	0.0286262129925839	0.0268698002949613	0.0249343412454485	0.0249213489052351	0.0238078150284759	0.0209018430253206	0.0173105919196695	0.0171241410495799	0.0190523643823083	0.0182307218143192	0.0180694260739292	0.020162387638867	0.0213446037039429	0.020752014635932	0.0229950513226389	0.0232213284068682	0.0222735972153814	0.0209846327246426	0.0225459459809008	0.0236019816670531	0.0220034899242535	0.0202482428249153	0.0207619854083407	0.0215127045959218	0.0204627733714505	0.0179125280531941	0.0187761428112889	0.0165712336544675	0.0163370314313451	0.0168995687575229	0.0174917743428533	0.0183436141920129	0.0201190085202072	0.0195219704991892	0.0209602218872089	0.0231747113043449	0.0217957494908132	0.0202725826067973	0.0198259614345347	0.0193360874609798	0.0210044869130349	0.0225391677357657	0.0234117804971543	0.0260249842147368	0.0240868780188862	0.0222540624070323	0.0228207883594563	0.0220670964608394	0.0198077418575217	0.021793704273735	0.0222993044393229	0.0207611830578668
0.0249926090617325	0.0227544321827888	0.0227870766304977	0.0221885779906163	0.0217357919261627	0.0210115379211358	0.0209136211923209	0.0233252351828837	0.0222218881477692	0.0241895543322422	0.024366593680963	0.0227293937728876	0.0215809777737687	0.0231140125190882	0.0244033581892758	0.0252378490252495	0.0236944291278038	0.02376257878089	0.023811923418309	0.0234638023237089	0.0223909184777772	0.0225595238729481	0.0230235457100599	0.0252960580405394	0.0266432208173837	0.0277583183447496	0.0285693526930289	0.0247202749593567	0.0268352106021866	0.0286319625718959	0.0305841313446787	0.0303141897280709	0.0303521113710447	0.0296754621823164	0.031108706617435	0.0312572543997192	0.0286332993824727	0.0277697209099378	0.0281962856384486	0.0290577368995573	0.0316930353399306	0.0281079268589568	0.0269681120964871	0.0256259784101057	0.025955059803104	0.0266349873096111	0.0243840918576544	0.0225159676314429	0.0228004207756516	0.022181231094908	0.0221625454728737	0.019438127324867	0.0194707717725758	0.019260347988612	0.0191092672672296	0.0194848235794079	0.019247454793445	0.0210656569000799	0.0198480458285382	0.0214863291128952	0.0211024900671561	0.0210403991185164	0.0198919831193975	0.0219875551908948	0.0232769008610824	0.0232477025211896	0.021413274330005	0.0212453197280609	0.0204044030709039	0.0212987637252145	0.0198964876804434	0.0209553543701902	0.0205291149127261	0.0221809402252736	0.0230809375210816	0.0241960350484476	0.0235374573282681	0.0216848216251358	0.0254830791231201	0.0268792624080679	0.0273618795140603	0.0281994423297369	0.0292346953474323	0.0271046443544609	0.0287452630907995	0.028547611308902	0.0260321736720137	0.0247214297184425	0.0239136179660387	0.0246043071483084	0.0258883583641087	0.023014125169406	0.021349604366489	0.0206281576980396	0.0203565742349747	0.0215947352064679	0.0199852163397077	0.0179097178122763	0.0169897811412145	0.0175175101224014	0.0180619010832187	0.0172547593911052	0.0163228933967673	0.0185641465441584	0.0171609989416037	0.0173710755752225	0.0163853191397714	0.0186983429378112	0.0172161127315799	0.0195392436807966	0.0198181604397605	0.0188054682643569	0.0181668877124134	0.0190449484163803	0.0198074641244867	0.0196637191614787	0.0178292909702941	0.0188571063151383	0.0174349010875975	0.0181218874406882	0.0178516245418131	0.0178626608944604	0.0168157344190643	0.0189709954773394	0.01975016034354	0.0206223325644972	0.0199637548443177	0.0181111191411855	0.0219093766391697	0.0233584827543209	0.0240406399322738	0.0248782027479504	0.0242950643076249	0.0239652882208994	0.025605906957238	0.0254082551753405	0.0250321036937916	0.0215129878161882	0.0220282418351949	0.022439159191337	0.0234867727256102	0.0213933681732519	0.0195544953190951	0.0182323837945825	0.0189802465954191	0.0202184075669124	0.0170041043642306	0.0149506976969559	0.0146935168305971	0.015841932829716	0.0163863237905333	0.0155791820984199	0.0146473161040819	0.0168885692514731	0.0154342060067861	0.0164511389041607	0.0149879091050699	0.0177784062667494	0.0172161127315799	0.0195392436807966	0.0177594406805316	0.0172501842508557	0.0159039277785571	0.017489664402879	0.0182521801109854	0.0177162361187844	0.0150480564550521	0.016909623272444	0.01488675318884	0.0155737395419307	0.0139951358666373	0.0138511964537243	0.0132917014928611	0.0149962159126971	0.0172939799163052	0.0181661521372623	0.0175075744170828	0.0160471377431436	0.0198453952411279	0.0192971000033353	0.0203803819653909	0.0207991633732292	0.021342482261097	0.0217683467959951	0.0227012896119786	0.0225036378300811	0.0215067993306002	0.0186083704709289
0.0244943641426165	0.0239266013794477	0.0237676236543642	0.0246810105765381	0.0251157201338408	0.0230874582254147	0.0221249732717006	0.0222501661730951	0.0202818756856004	0.01954785121737	0.019998036591803	0.0192172079494587	0.0197866793252584	0.0191310108165474	0.017757744835023	0.0186417267746327	0.0188681627457025	0.0182553624794522	0.0184031249585729	0.0165887207018391	0.0167571746509056	0.0167571746509056	0.0169440335489715	0.0161087943424971	0.0161714643086363	0.0170456632747421	0.0177367426796479	0.0182684210881659	0.0211030790202042	0.0173007880728142	0.0178042274490964	0.0164894829997842	0.020228823411833	0.0185757915487539	0.0203936924599753	0.021049044240582	0.0207885338012632	0.0196114116879641	0.020877119046103	0.0189986771728098	0.0171334896532034	0.0163067749384291	0.0195347357679918	0.0198866819882424	0.020118427733103	0.0197151124667647	0.0203999601316244	0.0183675983410075	0.0194249015560183	0.0197845923387379	0.0213472542703211	0.022048418767979	0.0213667216914965	0.0222801086136704	0.0227517157805396	0.0209730575090331	0.0198485760828413	0.0199737689842357	0.018005478496741	0.0179563016933704	0.0184064870678034	0.017625658425459	0.0178190366272414	0.0175394612925477	0.0175261296750367	0.0166982745668005	0.0177700023641307	0.0177778891158124	0.0184031249585729	0.0160261833756613	0.0161946373247277	0.0158506481640629	0.0160375070621289	0.0147551023746182	0.0164766154487346	0.0168239844527591	0.0175614813105054	0.0174978204439449	0.0188359710987326	0.0152467446059583	0.0151495191261772	0.0149979768591062	0.017847055976579	0.0174282745687407	0.0201077186682614	0.0190399840722695	0.0187794736329507	0.0176023515196516	0.0175168116532173	0.0153742372389123	0.0139417905074055	0.0138172300448824	0.0163223470549295	0.0170324615032797	0.0168846598005342	0.0164813445341959	0.0163971617253994	0.0161876653606079	0.016367829146889	0.0167275199296086	0.0188345728220091	0.020253843608829	0.0183642144136884	0.018922145869842	0.0174494518334092	0.0158760981648346	0.015870466687479	0.015354283003677	0.0137590779932018	0.0137099011898311	0.0141600865642641	0.0128167205957419	0.0130100987975243	0.0146484851129537	0.0140861745343889	0.0132583194261526	0.0163385090737126	0.0158434316087596	0.0159061301253422	0.0140917258686084	0.0142279528448503	0.0148907086495533	0.0144148117429163	0.0128880881178277	0.014609601191944	0.0149569701959686	0.0158090136768301	0.0168928697902828	0.0175340373700237	0.0144398883422025	0.0143426628624214	0.0146685939589901	0.0170401997128232	0.0158657776833613	0.0176836785945827	0.0174505919780982	0.0171900815387794	0.0154685684646631	0.0155179822019204	0.0138511444798997	0.0117110218280378	0.0115864613655147	0.0127211466505038	0.014094016903557	0.0139462152008115	0.013613692891237	0.0143249358470684	0.0142179258371244	0.0143980896234055	0.0147577804061251	0.0153731293699101	0.0161517362121837	0.0146053306921265	0.01383964796291	0.013797579176139	0.0122042033456957	0.0121985718683401	0.0113706259966978	0.0107078701919949	0.0106586933886242	0.00990496485168297	0.0085034491914066	0.00950368365694475	0.0111420699723742	0.0117981515831623	0.0109702964749261	0.0136317047146478	0.014176095675465	0.0142387941920476	0.0116435612929695	0.0117797882692114	0.0124425440739144	0.011801167488718	0.0117019871453172	0.0134235002194336	0.0137708692234581	0.0143654292297828	0.0146936447216119	0.0153348123013529	0.0122406632735316	0.0121434377937505	0.0132501975326636	0.0148661626648731	0.0144473812570348	0.0154315306957085	0.0157402226391221	0.0154797121998033	0.0137581991256869
0.0168753995778081	0.0164106006954935	0.0143351901169227	0.013601797382801	0.0147204911975552	0.0140288393712245	0.0122119830043872	0.0125338479970072	0.0133531023983748	0.0157808901969499	0.0152396355419321	0.0158403003979953	0.0150142596337546	0.015085760006003	0.0143906421177645	0.0169390764399713	0.0164009016345631	0.0164300254165386	0.0174365542372089	0.0170624886843324	0.0165356587222511	0.0161271248395192	0.0160287858806034	0.0189257428281676	0.019376298117931	0.0203188128964375	0.0207891996819017	0.02116057092671	0.0220458016594161	0.0194896170117735	0.0210945851935578	0.0187663050325674	0.0190094351942315	0.0214862141316375	0.0205803477412739	0.0210564231805428	0.0194368231581633	0.0195092549699088	0.0181619032356309	0.0191591755944986	0.0187651636343068	0.0181191378477582	0.0185829655741291	0.0194637287722835	0.020019814739969	0.0178558336938204	0.017116488273929	0.0175279463908686	0.0146115705411837	0.0147923730923644	0.0152217382340711	0.0148607545585004	0.0132628173435695	0.0133362808732036	0.012985362619499	0.0128035462403437	0.012234074864544	0.0118710921923042	0.0126903465936719	0.015118134392247	0.0134657836495852	0.0140664485056485	0.0132404077414077	0.0126491523089532	0.0126167902254176	0.0145445375296925	0.0162973466183072	0.0148568583318239	0.0164077781133115	0.0154893215996177	0.0149624916375365	0.0145539577548045	0.0148590389631776	0.0177559959107418	0.0182065512005052	0.0195248756306916	0.0177770915591318	0.0181484628039401	0.019495764533717	0.0166855812058112	0.017163054569451	0.0154354392645239	0.016341325230891	0.018155348363594	0.0179571578935854	0.0184913830246085	0.016251095984297	0.0166789832620628	0.0168185372671087	0.0178158096259764	0.0165315363712087	0.0159814915621447	0.0159354838413402	0.0167635451604921	0.0178821684543554	0.0163456996399823	0.0145316765072792	0.0155056719503967	0.0125892961007118	0.0134328544565955	0.0131994637935992	0.0128384801180285	0.0121308041976735	0.0122263595874644	0.0125381971384628	0.0116007401376839	0.0117161164267439	0.010835425269006	0.0116376851554679	0.0115246047481619	0.010983350093144	0.0117138114872855	0.010325233396867	0.00973397796441245	0.00970161588087686	0.0106898188244411	0.0129046989101267	0.0122198512452669	0.0137707710267545	0.0136591707768165	0.0131323408147353	0.0129360676827101	0.0139488248114382	0.0166371459619056	0.0161115587677166	0.0162984329245996	0.0160375545923635	0.0169484901494514	0.0173965983929982	0.0148228527466196	0.0153003261102594	0.0135727108053322	0.0144785967716993	0.0147913946629567	0.0140306668667703	0.0157688059091677	0.0141492058867881	0.014577093164554	0.0143113748394338	0.0144922207977076	0.0143332978437179	0.0131154232403522	0.0130694155195477	0.0136097578928686	0.0129048880661401	0.0133168099742488	0.0115027868415457	0.0124767822846632	0.00956040643497829	0.010403964790862	0.0105758464580318	0.0107416927445424	0.0100340168241873	0.0105623130020778	0.0101185099314526	0.0109800531197519	0.0109092601629881	0.010835425269006	0.0107177484844061	0.0115246047481619	0.00974375304128862	0.0109069552235297	0.00951837713311112	0.00892712170065662	0.00841728625348123	0.00988296256068531	0.0120978426463708	0.0109509239844403	0.0125018437659279	0.0117053958511302	0.0104473007713487	0.0102510276393235	0.0114292644466111	0.0141382751643428	0.0132131558835768	0.0134000300404598	0.0125384868521605	0.0140500872653116	0.0144981955088585	0.0123865208595506	0.0128639942231904	0.011821226583123	0.011272304760885	0.013086327893588	0.0118635291003308	0.0136016681427282	0.0116981548349583	0.011720769782558
0.00984489808239112	0.0104898008821137	0.0104898008821137	0.00922223745338305	0.00942038184794183	0.00902643472541602	0.0113348646572189	0.0123228556567053	0.0112654677548898	0.011551785824637	0.011551785824637	0.013322660161805	0.0126338298219974	0.0107756501321183	0.00946799152769269	0.010005321408905	0.0108293751469094	0.0106690738003644	0.0114185581105473	0.0112362042833532	0.0113309712988697	0.0114455179219848	0.010585181735908	0.0122394838301254	0.0127560044367342	0.01292952597363	0.0140310314812656	0.0150399696703298	0.0165507495057489	0.0146319993175496	0.0146319993175496	0.0137285497726652	0.0133964746388906	0.0129344036418198	0.0135765210195145	0.0125177590854909	0.0113902869533547	0.0100637280275679	0.0101057968143388	0.00801539034755116	0.00835067304759845	0.00668352802291044	0.00763917205806885	0.00609854836907505	0.00609854836907505	0.00526807824420552	0.0069008582945588	0.00525006035011339	0.00525006035011339	0.00580476760057342	0.00721864087783593	0.00710790305593499	0.00710790305593499	0.00717935617914338	0.00765566783168592	0.00790349012223813	0.0102119200540411	0.00929675345189057	0.00886005256800709	0.00951367461930861	0.00916968545864379	0.010359271225428	0.00972489949392296	0.00914919038774866	0.0086483880470789	0.00837886166453541	0.00920291540253982	0.00851578409391352	0.00979209836617767	0.0108922151226884	0.010180125874449	0.0102946724975642	0.00913694888695571	0.0107912509811732	0.0105521309661584	0.0099448238607098	0.0110463293683454	0.012279872365738	0.0126757860982528	0.0116472972046294	0.0122679842225614	0.0102170176976638	0.0112186287897263	0.00896255682182126	0.0102460507847123	0.00918728885068876	0.00881545734017609	0.00826972705673363	0.00831179584350458	0.00622138937671691	0.00521765552482512	0.00545206437825405	0.00492523441617282	0.0043045473982408	0.0043045473982408	0.00526807824420552	0.00653355431300447	0.00525006035011339	0.00525006035011339	0.00580476760057342	0.0058002444515094	0.00644514725123202	0.00702643582161581	0.00651660037444041	0.00699291202698296	0.00724073431753517	0.00826669366563329	0.00863399764718761	0.00819729676330413	0.00850692965394083	0.0078220819890811	0.0090116677558653	0.00904005182906323	0.00846434272288893	0.00796354038221917	0.00769401399967568	0.00924933285538031	0.00783093642905378	0.00963408066339918	0.00871012610380415	0.0088048931193206	0.00781599216016859	0.00798449279961626	0.00888315427221016	0.00861884623647455	0.00879236777337034	0.0104207032430872	0.0101451283440759	0.0105410420765907	0.00880487726261225	0.00942556428054426	0.00806498284591534	0.00727259296714356	0.00727259296714356	0.00855608693003465	0.00749732499601106	0.0071254934854984	0.00657976320205593	0.00662183198882688	0.00551371345636186	0.00450997960447007	0.00545206437825405	0.00492523441617282	0.0043045473982408	0.0043045473982408	0.00526807824420552	0.00589217772780806	0.00460868376491697	0.00460868376491697	0.00450063521067404	0.00515886786631298	0.0058037706660356	0.00638505923641939	0.005875223789244	0.00635153544178654	0.00593660192763578	0.00671473898518169	0.00708204296673602	0.00728671866804895	0.00691150389382592	0.00691150389382592	0.00810108966061012	0.00812947373380805	0.00710659914659752	0.00614372580885698	0.00587419942631348	0.00742951828201812	0.00667387766039456	0.00803445909502348	0.00780088962569713	0.00743358564414281	0.00690675568206157	0.00707525632150924	0.00797391779410314	0.00721622061593974	0.00749291847320694	0.00860103700567196	0.00930775004098332	0.00899598785314303	0.00796749895951963	0.00858818597745165	0.00722760454282272	0.00643521466405095	0.00643521466405095	0.00771870862694204	0.00665994669291845	0.00678150432483358	0.00657976320205593
0.0145901245278881	0.0131476141795296	0.0128615299660011	0.0122201982102441	0.0126359787994424	0.0126577125465745	0.0132363307777356	0.0118839984860889	0.0111384138662668	0.0108743589163452	0.0102505433298848	0.00871937408421195	0.00923215334159847	0.0101928017417934	0.00969770766587789	0.00942997176695607	0.00949848107995333	0.00974501334730628	0.009064651034069	0.00825601778630455	0.00939624695464733	0.00934334071258498	0.00943417012147284	0.00936725252429536	0.0101379160895438	0.0118673320766892	0.010306018820431	0.0112014033981109	0.0119412538618897	0.0112099887441895	0.0115547740108745	0.0135034869738877	0.0135332106929214	0.0126214695133177	0.0124685491557901	0.01163562032613	0.0117531998168779	0.0125950430343463	0.0121193451184851	0.0134387987551623	0.0132711204154123	0.01300452488342	0.0133840723310262	0.0132399718719733	0.0130000828657033	0.0121998779376794	0.0139806939082613	0.0140559611510364	0.0155695693979732	0.0149586007647975	0.0133654702677601	0.0119229599194015	0.0108300194421172	0.0101886876863602	0.00956216502324945	0.00964129195721937	0.0102199101883804	0.00886757789673374	0.00812199327691174	0.00785793832699009	0.00668973177971243	0.00619634263728463	0.00744038701237138	0.00840103541256634	0.00779286092934485	0.00752512503042302	0.00825639014812325	0.00836300567917371	0.00814471436300722	0.00677354378906491	0.00791377295740768	0.00750541124932503	0.0079516961242332	0.00788477852705572	0.00865544209230418	0.0103848580794495	0.00974348149425313	0.0106388660719331	0.0113787165357119	0.0106474514180116	0.0109922366846967	0.0125844579826134	0.0135332106929214	0.0120208046572545	0.0118678842997269	0.0110349554700668	0.0111525349608146	0.0119943781782831	0.0115186802624219	0.0118672713930314	0.0116995930532815	0.0114329975212892	0.0118125449688953	0.0112888970622363	0.0110490080559663	0.0108494679840057	0.0126302839545876	0.0132323811594439	0.0137257703018717	0.0128769256934236	0.0120150603140864	0.0107365562080396	0.0104504719945111	0.00914638443405113	0.00886046331487502	0.00964129195721937	0.0102199101883804	0.00824689087880172	0.00820898217933477	0.00723725130905807	0.00606904476178041	0.0061569441897364	0.00681969999443936	0.00686041172357254	0.00717217391141283	0.00690443801249101	0.00763570313019123	0.0077423186612417	0.00696149001889735	0.00677354378906491	0.00830597198660069	0.00702793788568523	0.00728894031953023	0.00712035901039287	0.0071597574579411	0.00888917344508647	0.00766650828950627	0.00856189286718622	0.00930174333096499	0.0079077224085618	0.00825250767524685	0.00984472897316361	0.0096484258665911	0.0084333294082828	0.00954382971152143	0.00846569149181839	0.00858327098256627	0.0094251142000347	0.00889273508461694	0.00893368461524728	0.009030625410187	0.00916216654820803	0.00916216654820803	0.00901806608915516	0.00932256804370238	0.010823793285148	0.0111033840142842	0.0111429438929627	0.0116363330353905	0.0107874884269424	0.00992562304760517	0.00959273031147793	0.00930664609794945	0.0074927230903141	0.00720680197113799	0.00798763061348234	0.00716473318436704	0.00581240089272035	0.00635578076363718	0.00594658721953833	0.00426854522508528	0.00381205369222399	0.00447480949692695	0.00451552122606013	0.00482728341390042	0.00506938296215399	0.00580064807985421	0.00590726361090468	0.00590726361090468	0.00571931738107224	0.00677427221496821	0.00531095567298959	0.00638909389269264	0.00651969415432962	0.00655909260187786	0.00770722001863944	0.00652145247262575	0.0074168370503057	0.00683117590467854	0.00609991078697832	0.00644469605366337	0.00749252639076285	0.00705978560266326	0.00662551778669931	0.00773601808993795	0.00674870927912275	0.00686628876987064	0.00770813198733907
0.00643861513868633	0.00714952318476968	0.00742803378006462	0.00657559596886228	0.00740230889750465	0.00825383109344254	0.00878627090892558	0.00890113115524672	0.00871452698667675	0.00830925465651064	0.00775055651236986	0.00829494747318713	0.00749985298768809	0.00964615814831978	0.00874033117019301	0.00764627717170197	0.00874972475396917	0.00992979096941184	0.00901896248040819	0.00763467812272595	0.00857412278593154	0.00751140322584943	0.00780993598301315	0.0089825272348915	0.00843813627407422	0.00863300108690138	0.00814409097449729	0.00852429234760388	0.00972390239778653	0.00862045481551934	0.0070058747006273	0.00705252941210619	0.00756236485928158	0.00755666919594792	0.00655020723805986	0.00676327169267553	0.00663069113061483	0.00674234130333253	0.00629368473644495	0.00661583899721325	0.00680552100371262	0.00515874547249373	0.00515874547249373	0.00515874547249373	0.00597825331783643	0.00618428310120562	0.00450864124937764	0.00496101451190514	0.00448354114826533	0.00471609830758652	0.00417170734676924	0.00488261539285259	0.00440548536652397	0.00400021303635786	0.00482692596500023	0.00529890071333199	0.00629098604182123	0.00675305703889201	0.00757933891744705	0.00717406658728095	0.00661536844314016	0.00715975940395744	0.00636466491845839	0.00851097007909008	0.00752703225003919	0.00643297825154815	0.00753642583381535	0.00870384046767115	0.00657063089296846	0.00518634653528622	0.00534496255614746	0.0050630716384097	0.00536160439557342	0.00653419564745177	0.0059898046866345	0.00661741028756124	0.00652951085960525	0.00690971223271184	0.00744656647819153	0.00634311889592433	0.00634311889592433	0.00638977360740322	0.00638977360740322	0.00643184239417417	0.00672120290590458	0.00610051588797256	0.00596793532591187	0.00607958549862956	0.00563092893174198	0.00595308319251028	0.00635835552267639	0.00515874547249373	0.00515874547249373	0.00555094450168673	0.0051713970540806	0.0051713970540806	0.00491391357954374	0.00496101451190514	0.00402147015119455	0.00425402731051575	0.00370963634969847	0.00366490377415825	0.00394341436945319	0.00353814203928709	0.00398530752032332	0.00483682971626121	0.00497739284881256	0.00543946384588334	0.00626574572443838	0.00618262765504057	0.00576384624720227	0.00630823720801954	0.00570001687940344	0.00628130544978723	0.00613111909328402	0.00503706509479298	0.00614051267706018	0.00458989961375675	0.00492279234988399	0.00353850799220175	0.00369712401306299	0.00341523309532523	0.00371376585248894	0.0048863571043673	0.00531909789246688	0.00551396270529404	0.00542606327733806	0.00514350884574168	0.00634311889592433	0.00634311889592433	0.00634311889592433	0.00638977360740322	0.00638977360740322	0.00643184239417417	0.00672120290590458	0.00657798925161237	0.00596793532591187	0.00607958549862956	0.00563092893174198	0.00595308319251028	0.00635835552267639	0.00515874547249373	0.00515874547249373	0.00555094450168673	0.0051713970540806	0.0051713970540806	0.00491391357954374	0.00449894351483436	0.00402147015119455	0.00425402731051575	0.00321624720727067	0.00317151463173045	0.00345002522702539	0.00255136375443149	0.00299852923546773	0.00255136375443149	0.00354344908292073	0.0035280467163517	0.00435432859490674	0.00393831778938169	0.00351953638154339	0.00351953638154339	0.00394909615617236	0.00453038472655614	0.00438019837005294	0.0037795335139897	0.0037795335139897	0.0037795335139897	0.00411242625011694	0.00287272251994726	0.0030313385408085	0.00246165334126597	0.00276018609842969	0.00331209033237602	0.00308207531577264	0.0032769401285998	0.00318904070064382	0.00290648626904743	0.00410609631923009	0.00368731491139178	0.00368731491139178	0.00406686235899792	0.00368731491139178	0.00435007071609475	0.00397667542312219	0.004454148786762	0.00450685066576446	0.00461850083848216
0.00574967740947032	0.00584760332550399	0.00478749279924606	0.00564994250088084	0.0064314533152179	0.00641445880031205	0.00641445880031205	0.0069769961264899	0.00660969214493558	0.0060284035745518	0.00524231818515917	0.00524231818515917	0.00463574439238762	0.00415827102874781	0.0047395595991316	0.00447072203258863	0.00340798617945461	0.00219047481192416	0.00268386395435196	0.00303931942037227	0.00247678209419441	0.00357494247576624	0.00357494247576624	0.00418658155864499	0.00418658155864499	0.00378130922847889	0.00378130922847889	0.00434507647497563	0.00494774426486596	0.00635526538468503	0.00586187624225723	0.00703008278953488	0.00667462732351457	0.00707989965368068	0.00598173927210886	0.00598173927210886	0.0053701001892301	0.0053701001892301	0.00574964763683623	0.00566470234621364	0.00617453779338903	0.00545732338038352	0.00404980226056445	0.00457663222264569	0.00340842567536803	0.00377572965692235	0.00337045732675625	0.00473783128653266	0.00431904987869435	0.00533089600163201	0.00580836936527182	0.00542882191766568	0.00436871139140775	0.00583182594910577	0.00555060091030881	0.00553360639540296	0.00553360639540296	0.00609614372158082	0.0057288397400265	0.00514755116964271	0.00478024718808839	0.00478024718808839	0.00417367339531684	0.00369620003167704	0.00427748860206082	0.00400865103551785	0.00340798617945461	0.00268386395435196	0.00268386395435196	0.00303931942037227	0.00247678209419441	0.00357494247576624	0.00357494247576624	0.00418658155864499	0.00418658155864499	0.00378130922847889	0.00492636504535941	0.00434507647497563	0.00494774426486596	0.00569250957998206	0.00519912043755426	0.00636732698483192	0.00601187151881161	0.00641714384897771	0.00531898346740589	0.00531898346740589	0.00470734438452713	0.00470734438452713	0.00508689183213327	0.00500194654151068	0.00551178198868607	0.00545732338038352	0.00352297229848321	0.00404980226056445	0.00288159571328679	0.00324889969484112	0.00247632338312069	0.0034249159350588	0.0034249159350588	0.00443676205799645	0.00491423542163626	0.00453468797403012	0.00438479159951158	0.00447562100839943	0.00569313237592988	0.00516630241384864	0.00516630241384864	0.0057288397400265	0.00516630241384864	0.00458501384346486	0.00421770986191054	0.00421770986191054	0.00361113606913898	0.00313366270549918	0.00371495127588296	0.00344611370933999	0.00220407226808033	0.00147995004297768	0.00147995004297768	0.001835405508998	0.001835405508998	0.00293356589056982	0.00293356589056982	0.00354520497344857	0.00354520497344857	0.00313993264328247	0.00428498846016299	0.00370369988977921	0.00428498846016299	0.00569250957998206	0.00519912043755426	0.00636732698483192	0.00601187151881161	0.00641714384897771	0.00531898346740589	0.00531898346740589	0.00470734438452713	0.00470734438452713	0.00508689183213327	0.00500194654151068	0.00551178198868607	0.00442065797112689	0.00353996681338906	0.00353996681338906	0.0023717602661114	0.0023717602661114	0.00254777650632908	0.0029150804878834	0.0029150804878834	0.00392692661082106	0.00440439997446087	0.00402485252685473	0.00387495615233619	0.00447562100839943	0.00569313237592988	0.00516630241384864	0.00516630241384864	0.00516630241384864	0.00516630241384864	0.00458501384346486	0.00421770986191054	0.00421770986191054	0.00361113606913898	0.00313366270549918	0.00371495127588296	0.00280473712414358	0.00220407226808033	0.00147995004297768	0.00147995004297768	0.001835405508998	0.001835405508998	0.00293356589056982	0.00293356589056982	0.00354520497344857	0.00354520497344857	0.00313993264328247	0.00428498846016299	0.00370369988977921	0.00428498846016299	0.00569250957998206	0.00519912043755426	0.00636732698483192	0.00601187151881161	0.00641714384897771	0.00491371113723979	0.00491371113723979	0.00430207205436103	0.00430207205436103
0.00445417550316921	0.00445417550316921	0.00642458546738368	0.00716908844332356	0.00800283991587125	0.00875941564401159	0.00745548184125159	0.00745548184125159	0.0067573065891505	0.00666321741516884	0.00628366996756271	0.00585092917946313	0.00668849199513974	0.00668849199513974	0.00647420521721248	0.00521147117335306	0.00446696819741319	0.0031398275824377	0.0025611641055631	0.0030709995527385	0.00337648154306029	0.00337648154306029	0.00343712989738851	0.00480019143264911	0.00438141002481081	0.0039626286169725	0.00425460152962209	0.0041534114163873	0.00452071539794162	0.00452071539794162	0.00452071539794162	0.00412851636874862	0.00503548827401486	0.00505599907122719	0.00489550266492663	0.00440211352249883	0.00353244112966602	0.00391198857727216	0.00391198857727216	0.00362001566462256	0.00322781663542956	0.00286051265387524	0.00356818857423029	0.00446685004682419	0.0048721223769903	0.00455876260681586	0.00371295086600045	0.00375960557747934	0.00419234636557893	0.00419234636557893	0.00381279891797279	0.00381279891797279	0.00578320888218727	0.00652771185812714	0.00736146333067483	0.00811803905881517	0.00632071611362737	0.00672598844379347	0.0062639174467227	0.00616982827274104	0.00579028082513491	0.00577632144487363	0.00619510285271194	0.00619510285271194	0.00598081607478469	0.00422469288849747	0.00348018991255759	0.00215304929758211	0.00206777496313531	0.0025776104103107	0.0028830924006325	0.00337648154306029	0.00294374075496071	0.00430680229022132	0.00388802088238301	0.0034692394745447	0.0037612123871943	0.0041534114163873	0.00452071539794162	0.00452071539794162	0.00452071539794162	0.00412851636874862	0.00503548827401486	0.00505599907122719	0.00489550266492663	0.00440211352249883	0.00353244112966602	0.00391198857727216	0.00391198857727216	0.00362001566462256	0.00322781663542956	0.00286051265387524	0.00356818857423029	0.0048721223769903	0.0048721223769903	0.00391738602161944	0.00371295086600045	0.0032327756153981	0.00366551640349769	0.00366551640349769	0.00328596895589156	0.00399364487624661	0.00525637892010603	0.00563357791449158	0.00664895634162678	0.00641875378491153	0.00511481998215152	0.00552009231231763	0.00505802131524685	0.00549076210334643	0.0051112146557403	0.00509725527547902	0.00551603668331733	0.00551603668331733	0.00480836076296228	0.00391293070065718	0.00348018991255759	0.00215304929758211	0.00206777496313531	0.0025776104103107	0.00237325695345711	0.0028666460958849	0.00292729445021312	0.00379696684304592	0.00290071207156781	0.00248193066372951	0.0027739035763791	0.0031661026055721	0.00353340658712643	0.00353340658712643	0.00353340658712643	0.00314120755793342	0.00455801491037506	0.0041164547105166	0.00395595830421605	0.00346256916178825	0.00307037013259525	0.00344991758020138	0.00344991758020138	0.00315794466755178	0.00276574563835878	0.00239844165680446	0.00310611757715951	0.00441005137991952	0.00400477904975341	0.00351211369145333	0.00278084857375311	0.002827503285232	0.00288069662572545	0.00288069662572545	0.00250114917811932	0.00320882509847437	0.00410425516077947	0.0039744586227012	0.00530159923767669	0.00423764520841375	0.00333898373581985	0.00374425606598595	0.00328218506891517	0.00371492585701476	0.00371492585701476	0.00370096647675348	0.00411974788459179	0.00411974788459179	0.00341207196423673	0.00307917922810949	0.0026464384400099	0.00215304929758211	0.00206777496313531	0.0016755759339423	0.0019810579242641	0.0024744470666919	0.00253509542102011	0.00292729445021312	0.00250851304237481	0.0020897316345365	0.0023817045471861	0.0027739035763791	0.00314120755793342	0.00314120755793342	0.00314120755793342	0.00314120755793342	0.00409594391330428	0.00355391738433875	0.00339342097803819	0.00290003183561039	0.00250783280641739	0.00288738025402352
0.00260892160534084	0.00260892160534084	0.00226493244467602	0.00226493244467602	0.00155725652432097	0.00111009104328473	0.000691309635446423	0.00031176218784029	0.00031176218784029	0.00031176218784029	0.00031176218784029	0.000405272330166104	0.000405272330166104	0.000760727796186416	0.00122279879325719	0.00145489042852982	0.00256034764176725	0.00256034764176725	0.00256034764176725	0.00290433680243207	0.00290433680243207	0.00290433680243207	0.00290433680243207	0.00290433680243207	0.00249906447226596	0.0032708109490651	0.00345974644386207	0.00343041623489087	0.00440707624021381	0.00299939387322349	0.00299939387322349	0.00299939387322349	0.00302270869411299	0.00360399726449678	0.00400926959466288	0.00360399726449678	0.00431097493773413	0.00391877590854113	0.00427049357863522	0.00407009177848275	0.00329336182971835	0.0027308245035405	0.00388566590493179	0.00388566590493179	0.00468399476037623	0.00431669077882191	0.00373540220843812	0.00373540220843812	0.00404716439627842	0.00334018672304106	0.00260892160534084	0.00260892160534084	0.00226493244467602	0.00226493244467602	0.00155725652432097	0.00111009104328473	0.000691309635446423	0.00031176218784029	0.00031176218784029	0.00031176218784029	0.00031176218784029	0.000405272330166104	0	0.000355455466020312	0.00081752646309109	0.00081215190962128	0.00169300431453037	0.00127422290669206	0.00127422290669206	0.00161821206735688	0.00161821206735688	0.00161821206735688	0.00161821206735688	0.00161821206735688	0.00161821206735688	0.00238995854415601	0.00219934659134685	0.00263208737944643	0.00308191742268813	0.00261984642561736	0.00261984642561736	0.00261984642561736	0.00264316124650686	0.00285714583533632	0.00285714583533632	0.00285714583533632	0.00356412350857367	0.00287021913630942	0.00360148425400965	0.00340108245385718	0.00262435250509278	0.00206181517891493	0.00321665658030622	0.00363543798814453	0.00401498543575066	0.00401498543575066	0.00343369686536688	0.00343369686536688	0.00374545905320717	0.00302842453520077	0.00229715941750055	0.00229715941750055	0.00195317025683573	0.00195317025683573	0.00124549433648068	0.00079832885544444	0.000379547447606133	0	0	0	0	0	0	0.000355455466020312	0.000355455466020312	0.00081215190962128	0.00127422290669206	0.00081215190962128	0.00081215190962128	0.0011561410702861	0.0011561410702861	0.0011561410702861	0.0011561410702861	0.0011561410702861	0.0015483400994791	0.0015483400994791	0.00173727559427607	0.00196961458222319	0.00164271467670049	0.00108017735052264	0.00108017735052264	0.00108017735052264	0.000736188189857822	0.0013174767602416	0.0013174767602416	0.0013174767602416	0.00172274909040771	0.00206181517891493	0.00206181517891493	0.00240580433957975	0.00206181517891493	0.00276949109926998	0.00321665658030622	0.00318827250710829	0.00356781995471442	0.00356781995471442	0.00298653138433064	0.00298653138433064	0.00298653138433064	0.00258125905416454	0.00184999393646431	0.00184999393646431	0.00150600477579949	0.00150600477579949	0.00079832885544444	0.00079832885544444	0.000379547447606133	0	0	0	0	0	0	0.000355455466020312	0	0.000456696443600969	0.000224604808328345	0.000224604808328345	0.000224604808328345	0.000568593968993163	0.000224604808328345	0.000224604808328345	0.000224604808328345	0.000224604808328345	0.000616803837521349	0.000616803837521349	0.000616803837521349	0.000960792998186167	0.000736188189857822	0.000736188189857822	0.000736188189857822	0.000736188189857822	0.000736188189857822	0.0013174767602416	0.0013174767602416	0.0013174767602416	0.00172274909040771	0.00206181517891493
0.00198343689327256	0.00316920443928626	0.00351319359995108	0.00370383483979709	0.00370383483979709	0.00415100032083333	0.00427829819633755	0.00427829819633755	0.00338891530155603	0.0034089374634248	0.0034089374634248	0.0034089374634248	0.00400960231948804	0.00400960231948804	0.00282383477347435	0.00282383477347435	0.00269447670312962	0.00329514155919286	0.00280984854827124	0.00263632701137546	0.00263632701137546	0.00263632701137546	0.00201563999344344	0.00201563999344344	0.00279236994220784	0.0021917050861446	0.0021917050861446	0.0021917050861446	0.0021917050861446	0.00213042191664331	0.00213042191664331	0.00112071910942922	0.00112071910942922	0.00187635973105278	0.00112071910942922	0.00112071910942922	0.00112071910942922	0.000343989160664818	0.000343989160664818	0.000343989160664818	0.000343989160664818	0.000343989160664818	0	0.000493389142427798	0.000493389142427798	0.00138277203720932	0.00198343689327256	0.00198343689327256	0.00198343689327256	0.00198343689327256	0.00198343689327256	0.00316920443928626	0.00351319359995108	0.00370383483979709	0.00351319359995108	0.00396035908098732	0.00408765695649153	0.00408765695649153	0.00319827406171001	0.00321829622357879	0.00321829622357879	0.00321829622357879	0.00381896107964203	0.00321829622357879	0.00203252867756509	0.00168853951690027	0.00209381184706638	0.00209381184706638	0.00220918369220799	0.00203566215531221	0.00203566215531221	0.00203566215531221	0.0014149751373802	0.0014149751373802	0.0021917050861446	0.0021917050861446	0.0021917050861446	0.0021917050861446	0.0021917050861446	0.00213042191664331	0.00178643275597849	0.000776729948764402	0.000776729948764402	0.000776729948764402	0.000776729948764402	0.000776729948764402	0.000776729948764402	0	0	0	0	0	0	0.000493389142427798	0.000493389142427798	0.00138277203720932	0.00198343689327256	0.00198343689327256	0.00198343689327256	0.00198343689327256	0.00198343689327256	0.00316920443928626	0.00351319359995108	0.00351319359995108	0.00351319359995108	0.00396035908098732	0.00408765695649153	0.00408765695649153	0.00319827406171001	0.00321829622357879	0.00321829622357879	0.00321829622357879	0.00321829622357879	0.00321829622357879	0.00203252867756509	0.00168853951690027	0.00209381184706638	0.00168853951690027	0.00225107684307813	0.00106785249896825	0.00106785249896825	0.00106785249896825	0.000447165481036237	0.000447165481036237	0.00122389542980064	0.00122389542980064	0.00122389542980064	0.00122389542980064	0.00122389542980064	0.00122389542980064	0.00122389542980064	0.000776729948764402	0.000776729948764402	0.000776729948764402	0.000776729948764402	0.000776729948764402	0.000776729948764402	0	0	0	0	0	0	0.000493389142427798	0.000493389142427798	0.00138277203720932	0.00198343689327256	0.00198343689327256	0.00198343689327256	0.00198343689327256	0.00198343689327256	0.00316920443928626	0.0029688026391338	0.0029688026391338	0.0029688026391338	0.00341596812017004	0.00309610051463802	0.002475413496706	0.00158603060192448	0.00160605276379325	0.00160605276379325	0.00160605276379325	0.00160605276379325	0.00160605276379325	0.000964676178596835	0.000620687017932017	0.000620687017932017	0.000620687017932017	0.00106785249896825	0.00106785249896825	0.00106785249896825	0.00106785249896825	0.000447165481036237	0.000447165481036237	0.00122389542980064	0.000879906269135821	0.000879906269135821	0.000879906269135821	0.000879906269135821	0.000879906269135821	0.000879906269135821	0.000432740788099584	0.000432740788099584	0.000432740788099584	0.000432740788099584	0.000432740788099584	0.000432740788099584	0
0.00282630752256742	0.00234883415892762	0.00234883415892762	0.00234883415892762	0.00234883415892762	0.00196055634366736	0.00196055634366736	0.00196055634366736	0.00155528401350126	0.00155528401350126	0.00208211397558249	0.00150082540519871	0.00190609773536482	0.00190609773536482	0.00190609773536482	0.00243292769744605	0.00243292769744605	0.00280023167900038	0.00272056719795537	0.00272056719795537	0.00324739716003661	0.00324739716003661	0.00320550400916648	0.00267867404708524	0.00267867404708524	0.00227340171691914	0.00227340171691914	0.00334462263981765	0.00281779267773642	0.00322306500790252	0.00308785266162082	0.00330344298528755	0.00365889845130786	0.0036764594500439	0.0032711871198778	0.0032711871198778	0.0032711871198778	0.0032711871198778	0.0037486604835176	0.0037486604835176	0.00267743956061909	0.00267743956061909	0.00318727500779448	0.00295518337252185	0.00229242756781889	0.00193697210179858	0.00224501895218364	0.00224501895218364	0.00282630752256742	0.00282630752256742	0.00282630752256742	0.00234883415892762	0.00234883415892762	0.00234883415892762	0.00234883415892762	0.00196055634366736	0.00196055634366736	0.00196055634366736	0.00155528401350126	0.00155528401350126	0.00208211397558249	0.00150082540519871	0.00190609773536482	0.00190609773536482	0.00190609773536482	0.00243292769744605	0.00190609773536482	0.00227340171691914	0.00219373723587414	0.00219373723587414	0.00272056719795537	0.00272056719795537	0.00267867404708524	0.002151844085004	0.002151844085004	0.0017465717548379	0.0017465717548379	0.00281779267773642	0.00229096271565518	0.00269623504582128	0.00256102269953958	0.00277661302320631	0.00313206848922662	0.00314962948796266	0.00274435715779656	0.00274435715779656	0.00274435715779656	0.00274435715779656	0.00322183052143637	0.00322183052143637	0.00267743956061909	0.00267743956061909	0.00318727500779448	0.00295518337252185	0.00229242756781889	0.00234224443196468	0.00224501895218364	0.00224501895218364	0.00282630752256742	0.00282630752256742	0.00282630752256742	0.00234883415892762	0.00234883415892762	0.00234883415892762	0.00234883415892762	0.00196055634366736	0.00196055634366736	0.00196055634366736	0.00155528401350126	0.00155528401350126	0.00208211397558249	0.00150082540519871	0.00190609773536482	0.00190609773536482	0.00190609773536482	0.00190609773536482	0.00190609773536482	0.00227340171691914	0.00219373723587414	0.00219373723587414	0.00272056719795537	0.00312583952812148	0.00267867404708524	0.002151844085004	0.002151844085004	0.0017465717548379	0.0017465717548379	0.00229096271565518	0.0017465717548379	0.002151844085004	0.00201663173872231	0.00223222206238903	0.00258767752840935	0.00260523852714539	0.00219996619697928	0.00219996619697928	0.00219996619697928	0.00219996619697928	0.00267743956061909	0.00267743956061909	0.00267743956061909	0.00267743956061909	0.00318727500779448	0.00295518337252185	0.00229242756781889	0.00234224443196468	0.00224501895218364	0.0017978534711474	0.00237914204153119	0.00237914204153119	0.00237914204153119	0.00190166867789138	0.00190166867789138	0.00190166867789138	0.00190166867789138	0.00151339086263112	0.00151339086263112	0.00151339086263112	0.00110811853246502	0.00155528401350126	0.00208211397558249	0.00150082540519871	0.00190609773536482	0.00190609773536482	0.00190609773536482	0.00190609773536482	0.00190609773536482	0.00227340171691914	0.00182643325431982	0.00137926777328358	0.00190609773536482	0.00178454010344968	0.00133737462241345	0.000810544660332208	0.000810544660332208	0.000405272330166104	0.000405272330166104	0.000405272330166104	0.000405272330166104	0.000810544660332208	0.00104263629560483	0.00147330046503517	0.00182875593105548	0.00237314689187276	0.00142348360088938	0.00142348360088938	0.00142348360088938	0.00142348360088938
