0.823932205803334	0.834760803920232	0.845379804628051	0.825148490272781	0.833396891801822	0.826928390577054	0.831020903622259	0.842787182547045	0.835940174229224	0.841025734841317	0.860483530534817	0.857526222162839	0.846391060930199	0.847425703204665	0.840411773789467	0.836131654531684	0.853257359028613	0.852908843542073	0.858301654307679	0.879332485402352	0.865183028064944	0.86429903062205	0.854741927865274	0.861360704783239	0.848427870488712	0.860622244577141	0.859674152173769	0.85788300148601	0.840457602956452	0.832016930195298	0.817429750378513	0.794842174837507	0.80108099252013	0.802805762580022	0.817234654391497	0.828365015747389	0.834972946869865	0.832703619819042	0.805547470434939	0.801373389395973	0.807309555671361	0.802666002043774	0.833819370065534	0.82711169313517	0.828929710922401	0.805386191434868	0.810805748941474	0.791455009495354	0.803810425603725	0.787370780407316	0.792773145654359	0.780521872043296	0.793626205334158	0.790673803321568	0.795902900841358	0.768608949901271	0.753194049983762	0.754912948128232	0.751350743290007	0.733167163068879	0.723506099076194	0.725000429677018	0.733135419475561	0.767330365810754	0.75124787325176	0.763130112392146	0.754603986913949	0.759140638245415	0.788418790561009	0.791228818256688	0.79878773997693	0.793982772735332	0.79782748454113	0.80720041560636	0.799934613581883	0.790970972259136	0.772597992888352	0.775075544215192	0.77290215321197	0.776818301320825	0.759625797827795	0.752547347034036	0.747742438426291	0.758667926936201	0.770496072679712	0.755095710189641	0.767661667691765	0.772417386239217	0.761446541820892	0.754105362344953	0.772597223455064	0.753970904237758	0.773205009973164	0.784268052313209	0.804822099599874	0.789239815084482	0.759228869607517	0.771769697838025	0.769476492844912	0.762902077963813	0.772021552874066	0.799572782140034	0.786757396788473	0.789981643858107	0.773795251304628	0.748443696757249	0.745835222195287	0.732374645134654	0.756881667885822	0.747641635381927	0.756941138625004	0.768007298478255	0.770697450189465	0.758479200506124	0.749240608869095	0.727500502441469	0.743768688829713	0.755758919613858	0.760065272026488	0.762535666658782	0.764820631360822	0.772714342773934	0.757280049823362	0.740402440755537	0.727295801517195	0.730227934652795	0.734122551861674	0.751256976618572	0.752403158008304	0.741056974858434	0.739663317428977	0.73678471771234	0.738949312457951	0.728536865416862	0.724315785104299	0.716347583342376	0.712368971810944	0.711540367417915	0.72043027070309	0.729953777100111	0.718068409683633	0.715734098369089	0.711823438374608	0.719410809840832	0.711016654372516	0.710713655442464	0.717280135018432	0.723031627176881	0.732981790462197	0.733717040408168	0.71736645465136	0.718742155922328	0.716581052201877	0.726234906689867	0.732065737869231	0.729131938174556	0.750737614023994	0.749500292428295	0.744382355192357	0.744529818123016	0.72879634617022	0.714156251590391	0.718795180612136	0.713825253743675	0.722365558683878	0.710482294888871	0.714411054436935	0.696971802329299	0.681534015103356	0.68414901257711	0.691568337306403	0.703667332080255	0.720764760655185	0.737158156949841	0.711314940062401	0.701582939526686	0.67941386268835	0.700381436518101	0.693797564494421	0.694516152285257	0.704801143273099	0.692197289082205	0.6922291238002	0.67687200130162	0.669607942356758	0.661189777965255	0.668243167018997	0.661842167556548	0.652408642547902	0.668233373638503	0.64901751085668	0.661742243708647	0.655062820153915	0.632362550179327	0.620723059550088	0.61515138975317	0.59531169822058	0.598636079161815	0.595219555391133	0.594028102588159	0.620589153787596	0.601904456669834	0.61291127006969	0.593249862174287
0.776553934293547	0.765335873940991	0.736520080538791	0.764119686797803	0.776281750163202	0.751051539849703	0.733814594717438	0.738898811476399	0.723153853079698	0.70645222627446	0.693733088290322	0.684529969772084	0.699496558301512	0.715848229662026	0.734828355015178	0.723247388599924	0.700320901869531	0.709671970100415	0.727784595207056	0.737146666031289	0.730568319965813	0.730706893761989	0.736650883212834	0.743709667865541	0.746331991638499	0.71796926487058	0.698101204390426	0.714426440353998	0.713584351824864	0.711700812286295	0.704341195160968	0.694107984274347	0.699179954539024	0.72909481374016	0.71926522397681	0.721282898769999	0.706407181125477	0.726530284322883	0.745881294336426	0.749048324248372	0.755209566742559	0.729126368717041	0.743568041840522	0.757069929653395	0.736198626774027	0.724947052687414	0.727525626336253	0.727846129147287	0.737749210901098	0.728738959624353	0.707635213199484	0.708194984365698	0.689811940362102	0.702976912165435	0.688014840598768	0.661226715402817	0.666615521945888	0.674590758958775	0.656699817109488	0.652012848244823	0.613638821085357	0.586854424879699	0.587375462167587	0.586226338563159	0.587950975004968	0.598036056905853	0.609184095931377	0.619446189292335	0.602420098690637	0.597604679249283	0.600782830051873	0.615975628759086	0.627583129963443	0.663537392544458	0.678799991039938	0.676935440605433	0.703140519512492	0.697873684244109	0.691313141490296	0.689264433048356	0.7151746945341	0.719626047153162	0.722831150093689	0.707986485422983	0.710379462936153	0.726448318113527	0.703950649302853	0.713895794488362	0.705568446555857	0.682669816112526	0.682088943135303	0.686146341728059	0.662028845832423	0.656753743247797	0.645431278911962	0.641651585598604	0.6339020611189	0.612908829340799	0.633480342985912	0.642264513655236	0.64776114782252	0.637224103844686	0.620702705497667	0.618059292151073	0.617932611935824	0.616174704262649	0.602924684839309	0.612438421341934	0.620273928134695	0.61584334714442	0.613442315092733	0.602556762430923	0.601722873854539	0.61001386759938	0.61688819645548	0.629438615123263	0.631965242687075	0.644978804969406	0.665476147757669	0.66860700039223	0.678628205506036	0.662995379997661	0.658302747783847	0.642962426595129	0.645320018122383	0.64130878079826	0.648463196806975	0.65069106604387	0.635443412777137	0.621992176388645	0.626471914405861	0.623283431234036	0.61832935759818	0.634553151660624	0.656129761687412	0.667881442603734	0.662753126700072	0.663471285578023	0.653664046026978	0.631782418347832	0.634680963998365	0.652297764589581	0.641138386998747	0.630582209258548	0.629545559638186	0.621849106204696	0.596162726232379	0.57413137816594	0.57093845276706	0.577313925304593	0.601192376445731	0.612413977491583	0.600926773430319	0.595638289387526	0.597243986197727	0.593366560794341	0.611444370214436	0.616022682167571	0.614730776928028	0.616479831663614	0.627012475333539	0.629667098404479	0.598122676221018	0.574638362613975	0.581410959931595	0.589573624772146	0.590576886260667	0.581674692990638	0.575850010646537	0.571917382706852	0.569239067419181	0.573539710816487	0.579881005116555	0.569261348339951	0.577478168714523	0.590291883588752	0.59400072057877	0.596485664677273	0.571640612680137	0.579162998089226	0.599618946854401	0.578218207031036	0.569867855258257	0.574284923840084	0.559323448854149	0.575410492150258	0.573761472875249	0.557162667037614	0.535175864920822	0.520979336088475	0.524175644410487	0.515092239845646	0.4898069361761	0.501824015855703	0.509373849884374	0.492498261307131	0.485837272381907	0.457854036067229	0.436023694274356	0.436344292822942	0.439674928162396	0.432012970592168	0.438552104411742	0.439211717327278
0.633919425461956	0.637136943901754	0.642659568182136	0.656372273731096	0.655083996364094	0.652621476156373	0.666324445973181	0.668716820897623	0.665557756102423	0.65073593498402	0.632511435365749	0.632614653904677	0.652441805396842	0.647390439815018	0.633966961450011	0.631175313930416	0.63004203097769	0.65362609840768	0.636017094795366	0.617173418678082	0.632217524319492	0.634060298590454	0.633492735896817	0.641947497768338	0.623765222702003	0.629483733196551	0.618880837854527	0.623874640258588	0.624107588424101	0.61966366034194	0.621071437814324	0.618705809119051	0.633724800344322	0.650508110662933	0.631913341309532	0.630032484957057	0.615384350091894	0.638460343162545	0.627670340505797	0.624180784478832	0.61862601433084	0.623627484934417	0.597742311531474	0.622045314625915	0.619777908654865	0.592487457799266	0.590515888658505	0.578897257597916	0.578345211787454	0.570237914651413	0.574340453838542	0.576062021648524	0.573389640761727	0.557865268654237	0.548126298221677	0.544358203175787	0.54064821577955	0.525303953050084	0.514947136692708	0.524737718977347	0.55716130447736	0.554110652863104	0.570474297197927	0.57013249026529	0.568839506765858	0.583176434292423	0.582474844099172	0.59940304906176	0.60403145093588	0.597816841884499	0.613844981853153	0.608247227049655	0.608202701699305	0.585426163561079	0.584726045447475	0.588682086407518	0.578799618003545	0.576661844414214	0.582174301122168	0.575348324796048	0.568563195358141	0.576788564287196	0.565019927974502	0.579275390615849	0.58085185969527	0.581263375235407	0.566003681081334	0.548002065983067	0.556085433560016	0.551436397757031	0.538595244954721	0.525735124333207	0.525034537293437	0.533896697180383	0.541515017365002	0.52294832911535	0.509120963516301	0.507467149431352	0.502960594275188	0.497119161567793	0.496335149468123	0.500579563800698	0.508655495779372	0.515269567614577	0.519909570720015	0.520974142479816	0.518720118491977	0.521237734557842	0.519117967994376	0.523094372633966	0.521262282235901	0.515205583287371	0.526564393408801	0.522480841245785	0.532050273375785	0.545340829358804	0.532980081626772	0.534149883298164	0.523526130336842	0.535234080413215	0.546763332059718	0.552534372316206	0.562223929187839	0.560495369196575	0.543720201441283	0.54707178244895	0.542812460036898	0.536381834412793	0.534081509075958	0.517584351282286	0.526828275418451	0.511128520459336	0.507334446641531	0.502891530739894	0.508332949370121	0.526851683380377	0.543898562847498	0.539344799883869	0.538492457181632	0.538443771453954	0.558182301541798	0.567378054857657	0.54929965656243	0.567390394400977	0.572071341265471	0.558078950056721	0.553282853732003	0.546368222584226	0.543576129050996	0.544531520137201	0.542222000285095	0.53732162486851	0.521582449002169	0.521043592363625	0.529313747742397	0.527477390053327	0.511548311480104	0.510889423883671	0.504876989311381	0.522358608996484	0.511387021402676	0.505821250750282	0.493907865892685	0.493399223825233	0.49726738256767	0.495791820046774	0.495476725551464	0.503404368044902	0.488148224572465	0.499458274222128	0.512232814322224	0.497970275061092	0.497148297185504	0.486972028233263	0.491530792873506	0.488539152521627	0.474452878454293	0.467895610464928	0.478620653421122	0.459228124178096	0.473177491236582	0.468562093341567	0.4473137584729	0.446937821536221	0.432935019877246	0.422224242675201	0.420071554805053	0.402882020785328	0.418566846800466	0.417838432601585	0.401043831631893	0.388068095209666	0.378222208927539	0.371253354770232	0.356441115223426	0.347218298611617	0.359855824371962	0.376526614433963	0.391669806924532	0.405272121937263	0.393396654038964	0.394868221263879	0.410618688382003	0.409706586720899
0.52802546864929	0.518892194575262	0.522189401055662	0.503868197944976	0.510164146594213	0.498997893162887	0.492042979220884	0.496358323756759	0.493738245452713	0.503021275133583	0.503598262368416	0.497689853588931	0.496938313659242	0.501640728517993	0.494242067652874	0.492754524242192	0.492201950091334	0.505342807632335	0.509824907847745	0.5134299018777	0.537481451355565	0.538749669211393	0.527111834114706	0.535169855603414	0.536738689470951	0.537744396571883	0.542564353855646	0.552325788143832	0.550316486275606	0.546450320287673	0.542542060390901	0.539132787707801	0.492535149689272	0.4936624983928	0.492479878852915	0.504268981040284	0.504144841888996	0.51483410588173	0.520497255851958	0.519346276148405	0.508801569068171	0.520359430722056	0.513311403232978	0.525227793346642	0.514816289033668	0.522478097814597	0.511759939723243	0.48989614282135	0.49798187040865	0.480152204149753	0.463523010322671	0.458682298329732	0.447562004434233	0.443032144514367	0.428529768641122	0.427662848768445	0.425820858803122	0.411745792486908	0.41227254456202	0.428813100279938	0.431989799998302	0.422331317093234	0.43682598224426	0.4364196813289	0.428382899883829	0.435270028917571	0.436939086979188	0.428000014389073	0.437939079993107	0.444688906676272	0.439238693682589	0.43312288553974	0.430255259688535	0.427366244259537	0.427578607188095	0.426556142565728	0.430354502517019	0.434602776148634	0.44556305305509	0.452127200833049	0.439631374878199	0.446473771439077	0.450325762366775	0.453539935894583	0.448566430398823	0.456790378592731	0.455054453169942	0.449297587142853	0.451282018112942	0.437879493605811	0.426691535404853	0.434687185422893	0.450611928264995	0.456587417679179	0.474675222558789	0.471895290442845	0.468723751332439	0.464564918533557	0.462185786561227	0.453522965805707	0.457306851833228	0.456702037683714	0.459776588341124	0.452204194446021	0.439978564543177	0.445073192461991	0.438648375370011	0.441185612918123	0.446319670146884	0.423217957166774	0.434746214441954	0.447451013618263	0.443162731095907	0.45316342504348	0.461237367420186	0.457738141269603	0.455473862928789	0.452079582617471	0.446835121827699	0.465899693503651	0.453983762442632	0.464829739609376	0.46129907260156	0.461934021631602	0.480810256826329	0.468520863562185	0.467796427139241	0.47028293573432	0.471777801983729	0.472263457098796	0.475394400170739	0.450645133369939	0.449059405904114	0.449621463329074	0.449794135193059	0.451860194908216	0.434111574165807	0.440010896488465	0.429871913396985	0.438867248352901	0.429418392796805	0.426550750771572	0.418989983535908	0.410961187561533	0.427063456597263	0.412729968602997	0.411064308697306	0.405939008443536	0.403524481121937	0.40587176286814	0.411144722648322	0.408797650819294	0.396729618601512	0.403616403032892	0.4051147108121	0.408485002630186	0.40963389973999	0.433565569483341	0.428883353790369	0.420691752888576	0.413984149363978	0.423335345974562	0.421592267786019	0.417113705130968	0.42767441053709	0.421234587462732	0.423260735713844	0.432171037927821	0.408356942406451	0.387096662118316	0.379714989410034	0.389154866856518	0.40685713997697	0.391255187905856	0.398140652731874	0.401518410792946	0.400008873833785	0.402166549159512	0.393210078853697	0.388407609837996	0.393474732499622	0.391132541563558	0.383857547062822	0.379153598412338	0.361961485615784	0.352848928930307	0.345048342308808	0.327812006941706	0.318415149845139	0.307311718378564	0.312372295675703	0.29946494540916	0.310935204435376	0.297383151065471	0.285487073071953	0.285218782807914	0.283587917797319	0.299293104437544	0.294552858703877	0.301893378641283	0.296310550588985	0.287783693734838	0.286206433176651	0.287434557921167
0.403170860120788	0.427239938359036	0.42608263246858	0.424705498688463	0.42403264363862	0.433274768785526	0.437142131462174	0.452761758772235	0.460865417425647	0.47030002804771	0.47174505983381	0.473186578034361	0.475251394008298	0.464587554632333	0.460885428964634	0.460236861213372	0.465931654481817	0.451670005201387	0.443210971807772	0.432866353025115	0.431539772230317	0.424806695030024	0.422632071244719	0.421501110123346	0.415090230666062	0.418035422282347	0.407035351233369	0.425476619512958	0.430657890466737	0.437287710735219	0.444417187706847	0.444578744374302	0.457064595737305	0.469251060884967	0.466988185957665	0.470640710022619	0.470235813911445	0.479852752856947	0.470991308988645	0.461853890154417	0.437727393639022	0.426594635634626	0.417973351524706	0.415234111275687	0.399666099712068	0.393744606346117	0.385174161718333	0.37960783164906	0.369417154795907	0.357910606243262	0.353100248013385	0.338658277770463	0.350193002579787	0.352424342962587	0.362874209427775	0.361302380214763	0.361629478298765	0.357202347632603	0.354160092453275	0.367552591222528	0.357447792672198	0.359503848996775	0.35592679976033	0.361604186303872	0.363501207737447	0.349307926353677	0.349182424644517	0.35255163089722	0.349343428403488	0.344317919302721	0.340733585378618	0.339918503388976	0.350185702612924	0.363059810134635	0.372304202367353	0.367752262244973	0.37542911441344	0.375418725116017	0.3840287850308	0.382528531217652	0.390718193368132	0.377770287440757	0.375873474641836	0.385034232053333	0.377045237674588	0.382037151973368	0.377367201766623	0.393069354440742	0.393512631709596	0.380939489141449	0.382634646745657	0.364333774529942	0.360865954190227	0.363671038970733	0.366487584709949	0.357862388910731	0.361655554164443	0.352435703591249	0.342195020517283	0.353453307718498	0.340501038853454	0.354449821394476	0.354884137083931	0.360008674193158	0.363977314974593	0.354734726073282	0.358137676928168	0.364346720906025	0.357164339211849	0.368849136701415	0.364804072791728	0.366379019979427	0.376264452989239	0.372101382542152	0.365720655816101	0.352077527630639	0.337114264056046	0.348409810706777	0.353953406712186	0.349507946547257	0.35418411985409	0.328404396976146	0.327952725837655	0.339286510673196	0.31983757841381	0.326604591445471	0.321336254319704	0.339556587164875	0.342529757182644	0.339181425770428	0.342313070881627	0.33875466631449	0.33672739000609	0.333228149887634	0.331281255501879	0.321678028346738	0.310164314638895	0.312480132105216	0.316990952881256	0.325756847254578	0.32760396578418	0.326235551775334	0.331857680760611	0.338686630531886	0.350939895305893	0.359290786132402	0.360978245747035	0.372338452928904	0.375923902996972	0.371591151333118	0.362268750964322	0.368218096767954	0.356062301601563	0.372178718261012	0.365588150758182	0.351837440365145	0.351794040165236	0.341758594690541	0.338027303559857	0.340800354785676	0.333984028607578	0.333473073202236	0.331590930719235	0.323789159988502	0.326461453584935	0.332475185402094	0.334390730994691	0.342531191746517	0.348452686964557	0.362465906112116	0.37060369767155	0.369274163810991	0.377138171304769	0.373686284419179	0.379078405725096	0.374450627615554	0.38777621935828	0.363788170466816	0.356886230399299	0.342358595339469	0.331214457533822	0.323810409156809	0.314262590960284	0.304142234069767	0.298154714468882	0.29497611650329	0.274497090907396	0.277447126703726	0.256861074129725	0.254493542766876	0.264034123137013	0.273269645783816	0.276783947966162	0.27692088538638	0.268025584215505	0.263055403779984	0.263987284621506	0.252221119053929	0.259350140636803	0.251531156448704	0.255097560211986	0.256712786562201	0.247280498287202	0.235357868515808
0.347660716337353	0.348320061144251	0.342854610867163	0.344408658998444	0.34429261352945	0.345741570829722	0.357605806435537	0.355127872244358	0.35420372252132	0.347876004749742	0.34030274973354	0.347545082103631	0.35281261456549	0.3618271373058	0.357668027849364	0.355473541566461	0.354223287765808	0.355401412907196	0.345541944374953	0.356602865506713	0.363420665017283	0.368984067740779	0.377609672101546	0.375441052319565	0.364707302904168	0.363452766004877	0.35510587307417	0.352204672617398	0.357480782106127	0.353293434334278	0.354005633369899	0.34831268166669	0.328822238129033	0.330889530402738	0.326525382361231	0.322205406510218	0.317441208635742	0.317733912241517	0.320922115264374	0.314516964742334	0.316645220387862	0.324611372681917	0.313167048129647	0.306179321901749	0.308175678750534	0.31243401369925	0.302639631718075	0.305861610542094	0.293175083616522	0.299641616509692	0.295457506325886	0.303010540590376	0.301437201852074	0.296551180006801	0.28293311017132	0.304720848122804	0.294864922709479	0.288329828208971	0.282572305183624	0.277247775016457	0.296481193072382	0.280849740645908	0.287043488204632	0.270186480099683	0.272576430541389	0.269604725058343	0.274633175614615	0.27904120836818	0.27160020188384	0.281495755009219	0.280963106062179	0.294479623096943	0.292921137758875	0.286987933148069	0.292285638064311	0.297028284863022	0.311244138830986	0.312169494154543	0.316571496602731	0.315111887538173	0.32672492007055	0.331518680385848	0.328201954159334	0.323314710643561	0.315245891420258	0.315492407109748	0.314427525170156	0.325378682243565	0.323222141523232	0.304810025802905	0.306269885028806	0.306605910302641	0.292615134486961	0.288098965672053	0.289937145767457	0.293958150131843	0.284888850715215	0.273170420340418	0.267631111096706	0.261416313224228	0.273443571843341	0.27128217651475	0.283805491041433	0.283488817980168	0.29284805538251	0.304635493729689	0.317590781397538	0.310556501424917	0.315258970896949	0.313118829307962	0.316778432040837	0.308870369192502	0.308450593877125	0.303988026388596	0.292182144781667	0.294414886311483	0.281766585035518	0.271301129184821	0.259119729252384	0.263055241962045	0.276100405110192	0.284601546465928	0.295105004748502	0.292661915668581	0.290235633595724	0.29408869683263	0.290613305563209	0.293595258081074	0.291096600807295	0.293247355399785	0.289752479111342	0.282416337872084	0.279399008965302	0.276260331644224	0.278316170693498	0.283984940205742	0.277708705555426	0.273116588635585	0.270976868109198	0.276230305529564	0.268557377210716	0.270232004006659	0.274384090962898	0.291649981419722	0.279356684442024	0.274463868446998	0.271248351217852	0.257694567664771	0.271402262555772	0.277685143627029	0.279856701476395	0.281146195014448	0.284800408409957	0.278748564617945	0.276959406717194	0.26945228520416	0.280671016232352	0.289077749392343	0.28523522723246	0.291864430897795	0.290514855250884	0.280433975143863	0.276190540223897	0.270526713400296	0.270724545670397	0.271650061442226	0.264977105414744	0.272947503249673	0.263979019921365	0.255691079213554	0.252971605033821	0.253364906964192	0.245786484567424	0.250189320246475	0.253946896174071	0.252794374897384	0.249721176141806	0.247814555039351	0.254815589447295	0.243740742361354	0.23397288392232	0.233818175327397	0.232335330283302	0.231418740076315	0.232632092400627	0.221568557409906	0.214937493185921	0.219845818846031	0.219410581190398	0.219991012699889	0.213829390722151	0.211449835886185	0.219358276748088	0.217216153336222	0.203862497778113	0.197578890176043	0.192104213574621	0.197664679375559	0.193583356696683	0.194993470451554	0.186081291027749	0.179639259894656	0.18132164545431	0.180330025097069
0.26186292543721	0.26267260040725	0.270931603942817	0.268523558839495	0.276205145367304	0.279187628454236	0.271951454409878	0.26962761168912	0.282045935798549	0.286086882849122	0.284340226975557	0.282179636382723	0.280953957258692	0.282190870904757	0.295145776809167	0.301115608478873	0.311210854557234	0.297615482268636	0.305808438669092	0.301983334652035	0.289274730046684	0.287984559930699	0.291959192214923	0.289957122051849	0.289260419929097	0.285333617366271	0.297199101622817	0.275562595515298	0.278610665122463	0.276955787164638	0.285932960184325	0.276429590993607	0.274263108079607	0.277699226172321	0.262682370716192	0.265526927199665	0.260004261530081	0.261821910772407	0.254164464181893	0.25357883551676	0.263022163440094	0.25385673883685	0.246291347622189	0.253700302566739	0.259672607295747	0.258983020680495	0.258120400024918	0.25679238068033	0.252044257340194	0.240903821808476	0.232929307483958	0.23444141854488	0.233293840756578	0.225409486830014	0.225031040519756	0.225997625171881	0.217320913151492	0.21972072481004	0.209353052091775	0.209491122292163	0.210547649769875	0.210576639434999	0.215656996994136	0.222029832509214	0.215941079909924	0.220479632962942	0.232748253518154	0.233371249041718	0.222683973677676	0.222994560939691	0.228549284239353	0.23974680657837	0.238045376149433	0.25050620132892	0.239439099749459	0.23259917495438	0.21230711831314	0.215650677086354	0.210764760940197	0.213290356528806	0.214937857596969	0.222245307183117	0.220497766152217	0.219102457669284	0.223925531807113	0.222244278478884	0.221519863460866	0.235587069034964	0.245394456911413	0.247548636030425	0.241961210805171	0.233714530351343	0.234245641316147	0.231440470507216	0.229208732096977	0.220007572139676	0.221378096787386	0.217680954505699	0.216679222147749	0.209803640903194	0.220822075305406	0.215019776146334	0.223173049449445	0.235091521427931	0.23615175131402	0.227027322574493	0.217908367432126	0.223664450358187	0.222771316884589	0.225471696673729	0.234444154684475	0.241605159833495	0.22987659513296	0.228817000808218	0.23077131742743	0.220061551467449	0.21507984200878	0.223076747621964	0.230670145220507	0.232705684589219	0.23670189067293	0.242683955511002	0.242638422199769	0.239943933129307	0.245170860269239	0.24939970815001	0.240789843872488	0.227183466907303	0.221771515724605	0.21755026617779	0.214440202719597	0.214841295933738	0.223460854348213	0.215592972282994	0.209715986468177	0.203109011752044	0.205314590255985	0.20482615875732	0.21288671346979	0.218863392797151	0.217588412249303	0.222184026793065	0.220243277973728	0.220186333621475	0.219420638744267	0.222479700911231	0.222901398032617	0.223782029843813	0.229037898677618	0.216090363111715	0.214812402363679	0.220186488667735	0.233264969146075	0.236458277671533	0.239397985849035	0.230029427243741	0.230143928597628	0.22629953004491	0.219440650206973	0.224984669434411	0.220011085468955	0.231755062497982	0.227130839571468	0.22760321328364	0.222658336140408	0.211295140216403	0.207521885354123	0.208801062040909	0.207795386995388	0.203537534903912	0.20564786785728	0.200984597786987	0.19875636978481	0.184954615801943	0.191654284393439	0.186870456097045	0.180887161722373	0.188740779601768	0.186640741261014	0.183997083851005	0.183913829649215	0.186319351989543	0.181653669012115	0.184103835606807	0.185357731369582	0.184771694288191	0.17637976609031	0.176004519952496	0.177977193319989	0.178581306026561	0.174901246052781	0.166563393366397	0.169258718514871	0.175146574844759	0.165196266241269	0.160207522548932	0.151496180417906	0.152659018050957	0.152813183599544	0.155380559903932	0.152700529221145	0.153830322653329	0.153761880219424	0.158129941030585
0.220735948622796	0.224888448201676	0.228049646613396	0.236837818200493	0.244845201214905	0.260835154208232	0.253003166657657	0.242338780830624	0.239335118347109	0.232541151323728	0.21767868617149	0.221067380844879	0.223691255240927	0.222646997321795	0.227475349320139	0.221756122402627	0.21880081215752	0.210696084201721	0.209635964089926	0.207766845779128	0.217571115834119	0.207734517095938	0.213568370939128	0.217278483408602	0.214025431284972	0.214189255831159	0.210505997253146	0.209126774117038	0.197733517283991	0.19747939897808	0.196605976577767	0.203328681730738	0.19646247942316	0.189577773372416	0.184335190460333	0.188399904647485	0.185569733797796	0.183564715822836	0.188694662707017	0.18631641033709	0.187137938367892	0.197010104529197	0.197075216868268	0.198978275546781	0.199216595164283	0.209012469061121	0.197752581607572	0.194355974003012	0.186849140632313	0.181510185836456	0.182038299884177	0.181013594835427	0.178503807751058	0.166383553801625	0.168214144899927	0.162522437292397	0.156154031941662	0.16245203344203	0.163879859904514	0.163727387108745	0.168682837916196	0.177690108710839	0.180535007728477	0.179712909263789	0.186848848483239	0.19965471001916	0.189193341032005	0.194302003116862	0.199345470239216	0.188481654534019	0.191338045947004	0.193200121082263	0.187309037138583	0.18276030272343	0.185793972214867	0.185162278493079	0.192998838541877	0.190188899962857	0.184283713764257	0.183018279515385	0.18000523814231	0.182214318870379	0.183100062972122	0.17462226297339	0.177635961824169	0.177147499043453	0.179158635309683	0.176765009751803	0.175177757629122	0.168396328936919	0.169941876220346	0.171407172950664	0.17893200581851	0.175127901501213	0.175625831823662	0.18499841233874	0.185992581640445	0.185239112182303	0.177855096352529	0.173660800558332	0.168776843402526	0.169347110987788	0.166718590367521	0.167015122502489	0.165523649260371	0.167803799380472	0.171405249203214	0.169513483649031	0.168656615300758	0.169651759738599	0.174571918872909	0.177251333713143	0.190721044634096	0.197282881305194	0.196446147987219	0.193349990415921	0.191046360496768	0.194211548515292	0.191588027023264	0.190429209212504	0.188030918826226	0.186632138607596	0.179837182081984	0.185296923701273	0.189183763946334	0.176969937100046	0.176830894163191	0.17357462605766	0.168502579200279	0.1612897667014	0.152099465956336	0.15391003856204	0.162355670876967	0.173096467161492	0.173504411452338	0.182991937832789	0.176733301926378	0.176224490464432	0.176287680958622	0.178468332027874	0.18679246088262	0.190216286318091	0.199301445970681	0.19964038199812	0.190392468849073	0.175131603898828	0.18585569891931	0.171725224700377	0.164533254182691	0.172958018573103	0.171854689844289	0.175620763385044	0.170877092728679	0.175416294059673	0.168680573926348	0.167798683237248	0.154544090105913	0.159327398963842	0.158709886162103	0.159434688177238	0.162506540581727	0.159509692159231	0.162756632028753	0.155432004898778	0.159830539673562	0.154978590502212	0.146168755404095	0.152931647057013	0.156326018154961	0.155859195959937	0.142088963697446	0.142445457049699	0.141573565316208	0.140918045607591	0.138088218741092	0.140344300456814	0.140397161755193	0.135110586441807	0.143432478351071	0.145086826465379	0.144861659830096	0.147081090026504	0.150739888603675	0.148320631076558	0.14193841488816	0.131054560841748	0.124531194853914	0.117652183890786	0.117722837135399	0.11693352948934	0.105631442987031	0.111143577981057	0.105673445691231	0.0960298701866193	0.0964416236474368	0.0934492562815544	0.0961535847829111	0.104067531530777	0.110528830799637	0.117401773262025	0.118811560201861	0.118234322308762	0.127511211643631	0.123541261425274
0.153945851641261	0.154944137654303	0.162642889064719	0.161595899544986	0.168448968972514	0.16827925736295	0.170823353735998	0.163832118930718	0.161835465830643	0.160342489953653	0.159322670572657	0.159300998232808	0.156893144179631	0.152864709090641	0.154591671384934	0.152746360309143	0.154932929038294	0.149890733823942	0.147335864280201	0.150478644338393	0.14905980352998	0.154310010744007	0.158312550836469	0.157698321285149	0.158555549846066	0.157451954125436	0.158188004145142	0.165024078250927	0.165873030953852	0.167030887314146	0.169061806384125	0.175306134373422	0.173138267119887	0.170653304565652	0.167658453762579	0.172998170699838	0.167677257347297	0.157963490359135	0.1594583794224	0.148180671752623	0.142839554364687	0.135301614989676	0.130347188592641	0.128367668878893	0.120833795450159	0.117384541910192	0.117488373486858	0.112780888770226	0.113534681434661	0.124480715387206	0.128244270815655	0.128699803759767	0.134628378455787	0.137139194590043	0.138975112272356	0.134136696521393	0.126445981311444	0.134720885028887	0.133337648101018	0.137160254502916	0.130234965422764	0.128357029297655	0.129915310798215	0.127115243842929	0.121937133920713	0.122398647238275	0.123588153971365	0.126275556845296	0.128689365284662	0.129293423485546	0.131284019307957	0.127681658231917	0.134388367261665	0.141782453855072	0.140643913931364	0.127374894729714	0.128993023923828	0.131207590949044	0.130209841332341	0.136310023744598	0.138563685600583	0.138689024774064	0.142894799171133	0.142960848298709	0.149122586648628	0.133349190132541	0.128063313462811	0.128314313139731	0.12912615672865	0.132061762178213	0.138951400073483	0.135574385672596	0.132280667701483	0.134832049192462	0.136207793999445	0.130175456917634	0.120977930489706	0.129373333763648	0.139391078319211	0.141209616456519	0.142472956788859	0.147568407766612	0.142164124754925	0.146559918803256	0.149221883508533	0.150361238977267	0.140992755783997	0.144227978724979	0.137953860283059	0.134339527031635	0.126267349129449	0.127435031231035	0.126803491870478	0.123230202811894	0.130658455490584	0.127720192264077	0.128268742353824	0.125916774509852	0.127010329738294	0.131644111428462	0.139268182123243	0.137940627285693	0.142318846446254	0.139377139181821	0.140173663731848	0.141568312694481	0.142530809778658	0.132115511974289	0.130576561499494	0.124223099075803	0.127396720071291	0.120308930662246	0.116889696750949	0.121211133233113	0.121013725524277	0.118837552205548	0.119200803999491	0.116303854722359	0.111501975124058	0.119799430503334	0.122557083325012	0.121390024402337	0.128280653174865	0.132779236709841	0.134550128322042	0.13126064882531	0.132063298972661	0.128332307622883	0.12454486010203	0.122093356753338	0.122251306086652	0.112255931788209	0.114299076652719	0.116486716185803	0.111067381606633	0.106302143865948	0.101049449532563	0.105492318879223	0.104113673654584	0.110800160662028	0.115966913248678	0.117613812415454	0.114303414870632	0.116998902938641	0.120766585858534	0.120102081185908	0.120493515212017	0.125483251529004	0.126704226814179	0.126817606902305	0.122356150312933	0.119527570624982	0.119229648715473	0.123008421160797	0.119948016388793	0.118020114913263	0.112933354568119	0.10803445166714	0.101958473287423	0.0951048565231829	0.0913929328105276	0.0918564355022364	0.0903609020656271	0.0868597778236767	0.0863769903412831	0.0805723244352454	0.084506741125549	0.0863741479403371	0.0938877411381146	0.0987571485412982	0.101823771817958	0.10098707377604	0.101593433359156	0.0918095912911195	0.0935708376734336	0.0948789797990347	0.0953713480208433	0.090262120186581	0.0855180479246755	0.0852130385233836	0.0844376832707199	0.0785588454539177	0.0757716829869668	0.0811857984565676
0.120426902759478	0.119270483532159	0.125923310732221	0.131735656781213	0.130014688749075	0.132464819626993	0.142071273143531	0.136668475662586	0.13621828013803	0.13027119917995	0.128213983647642	0.125344430826485	0.122105916370385	0.119504192092339	0.120706756372477	0.112475096168512	0.106359634252834	0.10209243313724	0.108111731436407	0.103480997321619	0.105804103275059	0.110490519856257	0.114722300681795	0.124029356287263	0.130919303236889	0.130621326685577	0.131296811378438	0.137955043839633	0.139397512731426	0.138365101162031	0.140286925897277	0.144907512443047	0.153169437383381	0.141958171346002	0.139552109643327	0.143116650309864	0.137871670834209	0.13830623759844	0.150988323398798	0.147127712143275	0.144642419766203	0.148877605946345	0.14820193448842	0.145323864400139	0.137574228454072	0.130832104263469	0.130824610412767	0.136098589692711	0.127715036706976	0.125478831467832	0.119969506374163	0.112467387714152	0.115280344527634	0.112039927498844	0.116565655350188	0.105442528734942	0.110734278314026	0.104237550238433	0.102558952432435	0.0995913967588319	0.0972032589159703	0.0983125473346966	0.0976717090767731	0.102087897104776	0.0990920724132262	0.095412212583208	0.0922533848549217	0.0927567524608889	0.0951084873896163	0.104549692168265	0.110222122987803	0.110466953574909	0.116579238706979	0.116999929632685	0.119952852426794	0.121068793275343	0.119193782242618	0.124040606918666	0.125830265071714	0.130061899958244	0.134627758226975	0.133665773256563	0.127824207389014	0.131156465912109	0.13024302272315	0.131480499088272	0.126175273349581	0.121275140331323	0.115648682533114	0.116288702833143	0.122763694506738	0.11959022133398	0.121162167860356	0.118030143757103	0.110674544270784	0.105509652315999	0.102651185918611	0.103230020835303	0.110189794467039	0.107969833772609	0.112556500157527	0.109678854858077	0.103543331089236	0.104074130744689	0.103710916552365	0.107927783622865	0.109380792131446	0.112604328090264	0.115946701069395	0.109754030276794	0.107845415420562	0.102880766723853	0.105989008423319	0.112731255448689	0.111897469159078	0.10913128352951	0.10597162164431	0.108663542519635	0.115623082725613	0.116620486708113	0.113728386478027	0.120775528061696	0.121943351624481	0.116624269166719	0.110986030741437	0.105722841130416	0.106421571053045	0.102642701137099	0.0992214034524762	0.0982363940969559	0.0943223384088907	0.0831979881074179	0.0929538499081594	0.0934026693762686	0.0911290903441296	0.0932481046902308	0.100412864130272	0.103467798033522	0.102304229528371	0.105893398174302	0.114066017142408	0.11060178337012	0.114160500855528	0.115146416957364	0.113418556940001	0.105211288666895	0.107040059527506	0.106115302064197	0.10018307815759	0.0979066929657683	0.0980501179094482	0.0972592565461369	0.0954047897328344	0.0888610679890898	0.0823714255176855	0.0813369171973874	0.0817616289720966	0.0819921401547168	0.0806188633922575	0.0849226673567136	0.0899939989344886	0.0992744646292981	0.0978676307307817	0.0956498230842152	0.0951991072141468	0.103126058229783	0.101910332799577	0.10405040475438	0.105841318972834	0.109423135842715	0.106986427198913	0.105220757692934	0.099986758090312	0.103951429244655	0.100193560175669	0.099586676527356	0.104098419979426	0.0977039034076722	0.104974032300843	0.10089206022944	0.103518221824804	0.0939170616023776	0.0878258998477704	0.0856977686052028	0.0901375827615299	0.0830231488328816	0.0828811454540289	0.0826360787813575	0.0744897996838869	0.0795590155715453	0.070929358712151	0.0727362739441706	0.0674141689154468	0.0656265418681981	0.0688185849440474	0.0668488324132372	0.0633396089135788	0.0594795284946954	0.0626587545519608	0.0664066513936146	0.0691687355988791	0.064508477167421	0.0631356711872963	0.0649742288448877
0.0921072005383687	0.0937538715096131	0.0963574751990617	0.0946087549240762	0.103727501106745	0.105404028717059	0.105830643071875	0.105619581842939	0.106179848520567	0.115747121172358	0.109626133292838	0.10383654393788	0.104666526402179	0.101683131217903	0.101836840502732	0.107795581256411	0.107586355618613	0.100033189584435	0.10048404821398	0.0975412034197203	0.0940443531621332	0.0889399989880323	0.0916934741966592	0.0993566190926596	0.104220536474572	0.103607835973068	0.0998088339727661	0.100559559586288	0.0957874260795688	0.0937787292780149	0.0850832767767267	0.0893569781716556	0.0854665226276668	0.0854197882998421	0.0852309901951129	0.0831235119254041	0.0768550733561914	0.0759695538635231	0.0801629682542089	0.0785922460739166	0.0780779466559261	0.0817723689780751	0.086899432854625	0.0895663142867428	0.0871275881267568	0.0832619426275586	0.0815373303544836	0.0826007312398149	0.0818871328047624	0.0840592253224777	0.0838369157570711	0.0780364095697263	0.0809043887902416	0.0795342975362013	0.0792610923961784	0.0728781926523371	0.0720053206596621	0.0770592708915042	0.0749417639555987	0.0742132677759025	0.0752994598281106	0.0748478257098227	0.071362205829734	0.0706961430128656	0.0692626597332543	0.0693627345837071	0.0706140689166069	0.0740215695322764	0.0800471062962062	0.0776415569196754	0.0775004116065496	0.0781384413149139	0.081874913371678	0.090419202701491	0.0924653144228867	0.091364589605642	0.0921671015228957	0.0941084981653878	0.0944124622990179	0.0936971569167515	0.0909288031013975	0.0886591787242001	0.0873187541475132	0.0851807794061084	0.0797180754849514	0.0816022554099419	0.0774991477211915	0.0781804461255124	0.0821031606710766	0.0785858025522662	0.0808604898753767	0.0810504632210619	0.0782038227436497	0.0821053198858663	0.0814053231653042	0.0863143458721284	0.0832231952757251	0.0804354168735842	0.0772105910736567	0.0779143825920819	0.0767722521201124	0.0745138118820176	0.0748579443960943	0.0776065102671096	0.0817875794823173	0.0798281867895659	0.0829822507212842	0.0810539755433914	0.0829664444591784	0.0829804908237825	0.0862406357092923	0.0876127619328643	0.0833790891503058	0.0822540499854485	0.0792308179412504	0.0753455565505913	0.0700002572781768	0.0696614900226199	0.0729577147648989	0.0732009315467457	0.0723829052345641	0.0746586464264792	0.0744213757153436	0.0738735272827844	0.0757445445950864	0.0766812830497067	0.0796022511221027	0.0815625006391849	0.0793919290420262	0.0762726202921258	0.0728466081468558	0.0717376412937537	0.0781243537101121	0.0747049452629727	0.071598181433667	0.0725900512453943	0.0736534479480597	0.0723925610541932	0.0740530198132149	0.0726841716103025	0.0764339163230092	0.0727133515388516	0.0843084425672512	0.0834155988733105	0.0809394894454841	0.0847419313052231	0.090600159427259	0.0893045743561382	0.083828145865117	0.0831022424369981	0.0794669272892162	0.0807326209751958	0.0759111615750378	0.0834637768642624	0.0742343936948805	0.0736962360026519	0.0711970951914423	0.0694857144737718	0.0635816224334836	0.0647314577168252	0.0670957354768739	0.0700390131703649	0.0731892147593348	0.0711932074426179	0.0759290281286603	0.0723627688790682	0.0705575048142508	0.0670158471475079	0.0667241061916287	0.0660736085740533	0.0679755838031469	0.0647018114509905	0.0637571858746379	0.0599879341214176	0.0577199870136159	0.0556746768310347	0.0566292071166575	0.0587140918015001	0.0607140142963203	0.0626100368814258	0.0672248267409787	0.0670518986457483	0.0631738171659468	0.0632134935685998	0.0614864198850438	0.0603910515434152	0.055766953448975	0.0578928967485491	0.0534941959681028	0.0487668416307147	0.049702676474258	0.0500285501204278	0.0415910134615459	0.0391971332036842	0.0445416533552307	0.0439629523021893	0.0461184463449023	0.0498390527264882	0.0499224577573083	0.0466735854912983	0.0449377057984425	0.048086879515841	0.0461143634108545	0.0450222523855571
0.0767034559933672	0.072686340845288	0.0746040831143483	0.0788181559982795	0.0813760508269621	0.0848018721484192	0.0843232024013893	0.0880955216127923	0.0864834298251194	0.0874079629721312	0.0876750208443221	0.091518408370302	0.0865412000875536	0.0899795801102723	0.0948580865777382	0.0910188988187527	0.0879016071123285	0.0848686142285501	0.0812365651582077	0.0844087710531287	0.085325833537491	0.087029600878551	0.0854332342433397	0.0821418857949458	0.0849210608023324	0.0783926524099568	0.0808243168170389	0.0789778447227748	0.0827007162213479	0.0876004583803672	0.090296189361529	0.0840443932268128	0.0799169315148307	0.0777903191844257	0.0798817915406164	0.0808638658739639	0.079620307701272	0.0788645492606312	0.0827589845846324	0.0768478347983479	0.0679967750834405	0.0629396046253667	0.0625743276326211	0.0634148919377907	0.0694002975669129	0.0729826743977569	0.0726542684777956	0.0715929393836524	0.0707822854497995	0.0664052440719864	0.0655737859013065	0.0675706638623876	0.0691349191528847	0.0693623550377129	0.0676522686843318	0.0644050011078642	0.0576883064785054	0.0558922287963983	0.0528424563456173	0.0494693897462698	0.0484334214213437	0.04833506067299	0.0492870228529577	0.0454387858722416	0.04463496412141	0.047470673906246	0.0503382759818698	0.0557552467229758	0.055841013202285	0.0570616448866384	0.064059946391481	0.0604584171119082	0.0626254928147461	0.0633363687240232	0.067014164966768	0.0715061370193403	0.0725596225351739	0.0723800376389044	0.0690480518490612	0.067715556751183	0.067345128368048	0.0708959302004874	0.0738942928300655	0.07301138917751	0.0767014794709619	0.0781055941275366	0.0754095590009244	0.0720613907644189	0.0714607259083557	0.0704208843140505	0.0722969881331617	0.0743266343671766	0.0708942290705323	0.0726782884518814	0.0673804227771724	0.0635815136313066	0.0660318223657695	0.0651381565552338	0.0667037214868323	0.0629249311873643	0.0635887308392627	0.0637351044398297	0.0661872151705198	0.0659626990785896	0.0662858906425476	0.0705055745587804	0.0734276504030531	0.0731284430662652	0.0680981002549637	0.0644972659301383	0.0590677492798754	0.061426779664071	0.0616240699226252	0.0632626296709516	0.0641977692011505	0.0629923968752888	0.0590259165957915	0.0545156292481893	0.0534082693054863	0.0502816196996995	0.0523760747697563	0.0558955822599497	0.0586125615492528	0.062638220715927	0.056539391692106	0.0550325220626716	0.0543575972486386	0.0538939356346687	0.0559326746636467	0.055551786516969	0.054278612514878	0.0583082597763002	0.0547715929136388	0.0529334622310581	0.0550988903916266	0.0551061747565353	0.0585091391877788	0.063422470539241	0.0674759006808185	0.0650993728859064	0.0679049945843629	0.0730493642158698	0.0726704087289111	0.0706275741049391	0.0757211328865638	0.0730923894935855	0.0717290628147794	0.0719905144128958	0.0701357359155509	0.0711691392402515	0.0708578609356484	0.0697847984675605	0.0678371859534681	0.0645560110720288	0.065087936186071	0.0651102893586467	0.0626924824330683	0.0651058182251367	0.068310492675269	0.0648033247765763	0.0607562956280713	0.0577408855300221	0.055522610895738	0.0535040199939829	0.0535162328434382	0.0588136223086309	0.0576941413543439	0.0592489597742132	0.0591475753662709	0.0563522166263601	0.0546246822612101	0.0552631107418655	0.0569244465773873	0.0584762247406948	0.0581486898637068	0.0611114402327383	0.0571717758710753	0.0499498525371562	0.0479053016035522	0.0437251730400891	0.0425914892724072	0.0431941988208072	0.0438741516311065	0.0474204252585254	0.0480195101993525	0.0477152798122422	0.0455445530005635	0.0456659443843966	0.0447906475709666	0.0457025827980661	0.0471059647256547	0.0497344972416814	0.0469915959330824	0.0481579683678903	0.0429990767467674	0.0370289574955749	0.0382845710998507	0.0345723893451898	0.035315225174216	0.0358060802780404	0.0359207941893442	0.0330889890830211	0.034931634176287	0.0321109236293076
0.0632694285280431	0.0604037600685678	0.0550343345175938	0.0555236253530404	0.0521690094439572	0.054365940253495	0.048537540465193	0.0492276909246391	0.0517119951170214	0.051462885537078	0.0506545648014046	0.049495800627116	0.0547523556492452	0.0544917912022952	0.0577942566332723	0.0590185666296824	0.0638065627627857	0.0686258059262868	0.0661638358471908	0.066153992537012	0.0645428709327756	0.0654627461190394	0.0613117447599799	0.0648874409402366	0.0620179015687153	0.0602624518517494	0.0624413059603454	0.0632960166382447	0.0618587463509873	0.0581988042525931	0.059363036852802	0.0637287187736822	0.0650494716969711	0.0634750410243339	0.0659441068526405	0.0671575175430314	0.0653200712701602	0.0665832606515355	0.0657461890324457	0.06226727805114	0.0669019668909453	0.0663535676876183	0.0642225798032044	0.059702874093692	0.0611180656092558	0.0594483765649514	0.0612310259306755	0.0596027791400149	0.0586512338075794	0.0573683063302354	0.0567793398455087	0.054733851674245	0.0509334514545432	0.0530756193804144	0.0533199491061192	0.0519554704385768	0.0517879585792354	0.052014228430744	0.0513134369403272	0.0495213572901061	0.0482283720770634	0.0501256608884435	0.0483378508327501	0.0507291952458416	0.0504178790494497	0.0438386612766639	0.0501750102696773	0.0485395405885804	0.0486354837952368	0.0480405057959065	0.0489039057643402	0.0506345819465274	0.0522149158363133	0.0506944388629104	0.0543134172192023	0.0562578257881877	0.0567333878018714	0.058108477744044	0.0569038126074749	0.0580147576888077	0.0547395201680722	0.0585199244800739	0.0587424798606366	0.0578917372349036	0.053756176686171	0.0554288963994542	0.0561377817760524	0.0524840656186596	0.0488041764397034	0.0490463204863601	0.0499968930581983	0.0518588671713031	0.052450087431971	0.0507084129604758	0.0501054118457848	0.0500589017187126	0.0502097171571281	0.0541678238077909	0.0583585973279874	0.0616409611522065	0.0676689539355935	0.0672454415753868	0.0648436080781668	0.0624245607488645	0.0629801546656275	0.0626932419704584	0.0591165135248178	0.0576954405420404	0.0595146371152593	0.0552206969452749	0.051095684519587	0.0513384628873162	0.0453819935373506	0.0451015481694537	0.0513209367230224	0.0567884385474506	0.0533246015049616	0.055637655616506	0.055201934906615	0.0587879795899908	0.0608983704557708	0.057186522009328	0.0596350407955165	0.054959625940832	0.0590616113607722	0.0584480931546879	0.0567840242499614	0.0573919530464499	0.0550389955437182	0.055313262933927	0.0566710938911668	0.0578344045810342	0.055788832855401	0.0545670886447564	0.0565961727132251	0.057028237485487	0.0595887586301225	0.0548059982749247	0.0528227580295615	0.0466304750725326	0.0439581101195372	0.0436960089682277	0.0417521252256976	0.0382797929498159	0.0372043661286079	0.0416750632736746	0.0409313283498223	0.041793155718528	0.0394960840811319	0.0416933809816494	0.0413095445432758	0.046335033265336	0.0478720801425941	0.0491428533114507	0.0521566489613885	0.0550545462647172	0.0551233428011544	0.0539741111399304	0.0524301719625503	0.0507191317261731	0.0519846932920503	0.053570457369539	0.0554535245196624	0.0517193791151305	0.0535161854773044	0.0527828949558796	0.0516671045660779	0.0509475280133791	0.0511385574252602	0.0532451358407182	0.0528785301680323	0.0512570037557561	0.0539512028894338	0.0507594343328941	0.0518673650292196	0.0536480838400735	0.051324405159343	0.0512957559646601	0.0517162146704927	0.0489210460729502	0.0472636189916073	0.0468323508966998	0.0460539369905606	0.0487565230273466	0.048348453309253	0.0456454804097819	0.0418270786122842	0.0430780938296581	0.0393103987071316	0.0387150918907647	0.0428656460122476	0.0405310257862783	0.0398774351972766	0.039277262034358	0.0379918863543418	0.037304253259228	0.0365914168275791	0.0368422187726647	0.0393365442725953	0.0371890236926671	0.0387017569270127	0.0397290818890153	0.0357615230268124	0.0383498591499293
0.040461574227151	0.041217927750586	0.0412527742168277	0.0461634182267283	0.0446287776380397	0.0474000298550172	0.0491417520160395	0.051970704918173	0.0539955565528188	0.0515167321795707	0.054232905640728	0.0566353750704597	0.0543198664588944	0.0568672507653749	0.0592555120742861	0.0603063661314364	0.0593462412908914	0.062882270746914	0.0609862881295345	0.0587147540002145	0.0592080727784749	0.0610347491586539	0.057725890236156	0.0557471055280824	0.0538574350096987	0.0592420043166489	0.0581199008859079	0.0571520495095709	0.0551120350884484	0.0525272940567531	0.049190904187163	0.0475117166555558	0.048330466683599	0.0491426178117443	0.0467746582383508	0.0472116171365454	0.0488629822279199	0.0400763619343027	0.037896966625756	0.0373215641988309	0.0372631707160684	0.0399577534247163	0.0409992797655951	0.0396147451703773	0.0399647411404823	0.0408180647683182	0.0393116532490832	0.0392356123867306	0.036582968502918	0.0386448700091619	0.038580110451663	0.0365220133257643	0.0356882618532166	0.0341769806099695	0.0354594864938114	0.0396520470729754	0.0399012260198898	0.0389638344229618	0.0409238531815287	0.0413724691730159	0.045368785471172	0.047891897219019	0.0456759524067398	0.0466635711472317	0.0504302717501084	0.0542297238957401	0.0500175057069485	0.0514867027623044	0.0490178837383739	0.0461557160849509	0.0429099833984002	0.0435259090687494	0.0433343694852187	0.0392687893012076	0.0381750039579066	0.0404721288787019	0.0401479170186179	0.0356560188931296	0.0361292266464031	0.0335953078691262	0.032075138262758	0.0346478792191692	0.0351881361910067	0.0360894859970025	0.0377317864570162	0.0379817740407287	0.0405082363763936	0.0456749097098601	0.0465231536932196	0.0462751953743652	0.0495364174242964	0.0489663499436938	0.0503492195536423	0.0472262697226846	0.0495527035979451	0.0467231163651122	0.0428355602458023	0.0439370000500263	0.0415854997696663	0.0352991480621516	0.0312149662823454	0.0304452435549383	0.031030394912747	0.0329720585367016	0.0317345309585602	0.0308131267199614	0.0308282510642916	0.0312846226929913	0.0341617769484192	0.0343438362238357	0.0366861178515064	0.0397311741483271	0.0425847288419055	0.0410835036004599	0.0418336075096545	0.0425547118281605	0.0425236061152744	0.0429632940105569	0.0431016549360002	0.0435791252653067	0.0417387736842381	0.0394702869590259	0.0358027575650567	0.0333988402765989	0.0322924683492671	0.0349212054611259	0.0323896522604412	0.0315046349668547	0.0272324695271375	0.0282466647677599	0.0264643812044899	0.0264530897701982	0.0242613757633448	0.0241668017355949	0.0255140317947269	0.0259020956953129	0.0289569492784279	0.0267121883646461	0.0276958863318142	0.0287581882382973	0.0317885516362129	0.0341661482619611	0.0338383643718552	0.0372455731618989	0.0381215496162155	0.0414211430009357	0.0400936329062371	0.0418024859126127	0.0399796694346779	0.0430886971121137	0.0409919855294778	0.0439415414160052	0.0443439242670347	0.0447404012056342	0.0441168220317406	0.0448569699258177	0.045153413129108	0.0426259324372143	0.0417893279602721	0.0455273859048643	0.0408438011552595	0.0374092193095606	0.0432610365200761	0.0446017159405487	0.039427915689994	0.0373179950951873	0.0364742501740965	0.0339447165682622	0.0337370789016148	0.0333247545426811	0.0329919825302666	0.033797448721244	0.0350751335143094	0.0372206171056113	0.0299906574617309	0.0270887116801313	0.0294944215013337	0.0294082363028196	0.0294621229268721	0.0350020524018973	0.0311057300998273	0.0320945351547716	0.0325403875744919	0.0297780363546907	0.0308303018414878	0.0276089057901651	0.0302237259210556	0.030861306504691	0.0273750447482808	0.0272617819858895	0.0266828368877055	0.0235534296960087	0.0233413400531142	0.0231493091941934	0.0242228191476251	0.02715341605957	0.0257254579972913	0.0254549880396946	0.0286190603158794	0.0281078670822153	0.028941618554763	0.0298551581827406	0.0321854815374887	0.0329603951705914
0.0320526858828917	0.0299668675291716	0.0301554990148309	0.03072472299502	0.0240413156644489	0.0261056794208	0.0245792255905936	0.0256971060569498	0.0264371474390701	0.0255685575458542	0.0273100006789644	0.0286920083470969	0.0300224388522663	0.0325000096810787	0.0366504162474188	0.0395139860993088	0.040791000836462	0.0408085618351981	0.0395456400548958	0.0389137433562145	0.0370651614530736	0.037478511651914	0.0384570691569639	0.0391346330199963	0.0428517335311708	0.0418177344175806	0.0402883475260097	0.0366345939749808	0.034935408181498	0.0351097602327378	0.0345557744245185	0.0336724594273267	0.0336819865116153	0.0295746378090906	0.0296703085760082	0.0287562195641227	0.0260666142855921	0.0251615541922012	0.0272771086176579	0.0334955120756526	0.0334044363598748	0.034574181273158	0.0356430217519078	0.0378103297542372	0.0387415037273533	0.0394975371768585	0.0389323640691502	0.0382384114353831	0.0383826698656303	0.0369754758136714	0.0385051261057706	0.0316924380697022	0.0316594224642138	0.0309565347423858	0.0277492442741136	0.0281890796689384	0.0257256716522426	0.0265136743574017	0.0278632009665457	0.0280652259710894	0.0254187542481491	0.0281103979439043	0.0254965303672879	0.0252971311001513	0.0261723208738142	0.0270559812522172	0.0281658515442465	0.0275407380634886	0.0280760268988932	0.0280957442670549	0.0300631332485818	0.0290583861081893	0.0317115654777507	0.0299925653128268	0.0302977754395968	0.0327469849053171	0.0363207971260041	0.0351009362305105	0.0342907716138269	0.0338000080114856	0.0353252387058522	0.0357992993956803	0.0347753181385052	0.0362217595049143	0.0369699487449782	0.037572762708675	0.0387071761617805	0.0386436102151162	0.0386242553133102	0.0358351585256483	0.0353035295461808	0.0343187219069897	0.0361577265054409	0.0374656468872026	0.0354221999394769	0.0342277502686221	0.0349586953350581	0.0340616539765892	0.036499927009631	0.0374964130619206	0.0370511428045091	0.0369561420648854	0.0430104804021759	0.0427533389901211	0.0421276481600882	0.0402534585493267	0.0397934055738537	0.0432157647639886	0.0407843763933334	0.0387195756905856	0.0363710873270784	0.0345436054338919	0.033671916059941	0.0318548964152098	0.0280231517306905	0.0280987500207398	0.0265737875652714	0.0289002266712855	0.0267241306647487	0.021317940063227	0.0234506326927798	0.0225217678301279	0.0235155882191798	0.0196003711134079	0.0188686115735184	0.0187463012348365	0.0207215414887883	0.0190651340381252	0.0197403449855038	0.0241022999847368	0.0214169318707141	0.0247634283203231	0.0246110305725218	0.0256080492521261	0.0269359588145742	0.027887838417844	0.0265444724493218	0.0273964823130454	0.0254108824378505	0.0259750596337543	0.0245941197755241	0.0219417365081575	0.0210249820231914	0.0221792593989098	0.0209036721942011	0.0212864738435744	0.0216595119496178	0.0211859139455643	0.0227241209881596	0.0237674805556141	0.0247861967670436	0.0255747170029874	0.0303011482876195	0.0321146973182998	0.0313354044540547	0.0315071349291456	0.0291531091240749	0.0278579576787901	0.0286872473636701	0.0302663051622487	0.0310300483286925	0.0306977938422657	0.0334591206908994	0.0288219762906647	0.0270431608902841	0.0244879093413092	0.0255788416802157	0.0228081184099891	0.0229249681642052	0.0220634249759059	0.0192277930911268	0.0180918998013603	0.0190956530470536	0.0172982439072747	0.0145081989523644	0.0168680723153991	0.0226149462373443	0.0226849600167667	0.0238725237749889	0.0277005012611931	0.0292017265026386	0.0302326234461414	0.031630033480843	0.0297117409142867	0.0284104754962253	0.0300788749482804	0.0291410357028664	0.0281593047731967	0.0217154477762048	0.0226353844472666	0.0177527342848257	0.0162803960765279	0.0158348324425952	0.0166632531089736	0.01582146538499	0.0182362035879192	0.018267890295478	0.0161131629419518	0.0171833520960265	0.0165128855830166	0.0174554003615231	0.0176390927631594	0.0187107202109795	0.0210709726046882
0.0276640185362109	0.0251650738919901	0.0247197111642281	0.0230206843980882	0.0241072754223959	0.0241072754223959	0.0239840839299725	0.0234686157456377	0.0240774981551062	0.0207710007021145	0.0190496784198561	0.0192911011534546	0.0198040128936163	0.0218625521210005	0.0226939460829085	0.0238565319887568	0.0254374734480698	0.0235490185903417	0.0243827700628894	0.0235047762844204	0.022392161460396	0.0222228979168341	0.0242525559421433	0.0265569088436601	0.0287334577598828	0.0271770878571033	0.027366834769154	0.0259400741177103	0.0243888080348832	0.0240895583817534	0.023717019708121	0.0252921286675567	0.026214938178569	0.0275047266564341	0.0252079159424208	0.0229833110678346	0.0214160108338201	0.0188373130098965	0.0204628995740928	0.0191828131348529	0.0217276280787729	0.0223906309053609	0.0239271001693288	0.0234871168025332	0.0208125028086458	0.0212736638460509	0.0196590837311588	0.0161464572702333	0.0192665608536518	0.0200573902655426	0.0200109728127021	0.0194368750067414	0.0164535716686798	0.0150247432299826	0.0164660312336101	0.0179141543212714	0.0213221293579579	0.0196492906936118	0.0219130715721408	0.0233100887789608	0.0235177534562058	0.0236688204339057	0.0224870765414738	0.0224341537112704	0.0215815800463881	0.0239828545501209	0.0248520448973172	0.0214700866164092	0.0191245958307018	0.0203459477046971	0.0208585292587986	0.0190043128747142	0.0189144243422104	0.0196973834959335	0.0189897075755784	0.0173473357449348	0.0184273708888725	0.0161948241766621	0.0172061155960369	0.0185913459213631	0.0194755111739703	0.0223314567135188	0.0225182675155041	0.0241274005174952	0.0261376167940385	0.0233428596898535	0.0237296852387018	0.0254413062710537	0.0232467246113748	0.0227216509013672	0.0245182875777417	0.0234496807050581	0.0213473116978982	0.0174467489793324	0.0158973850610031	0.0154213557621202	0.016977205994017	0.0160572693229552	0.0163909324842633	0.0148379153849844	0.0143158801194167	0.0152061414139926	0.0139115464197477	0.0124410575820395	0.0148375819459138	0.0169374534853908	0.0203454628320359	0.0225420817090118	0.020545234309226	0.0213008749308496	0.0254971054825293	0.0254971054825293	0.0270890832944896	0.0282134551211704	0.0284194229346052	0.0279375130881761	0.0270031967686643	0.0250957612612721	0.0222037060952431	0.0188917237234805	0.0166982337252912	0.0166982337252912	0.0145894736448196	0.0133138175663021	0.0161470301537453	0.0161043160348945	0.0178789185004351	0.0176166053078421	0.0195393845598118	0.0199149302700563	0.0198928384098995	0.020000114123535	0.020953683951581	0.0220404045353015	0.0264817933376873	0.0281501927897424	0.0267609201453914	0.0252783006214028	0.0250900622395375	0.0229602019354559	0.0196566818734429	0.019627006496957	0.0216335341923265	0.0210328693362633	0.0196665115772812	0.019831857874733	0.0177111850817129	0.0153138735866582	0.0151918649877621	0.0158075142683705	0.0173168999506154	0.0163909327140938	0.0181212281559875	0.0187668131277028	0.0161272050041163	0.0169080336464606	0.0162666570612642	0.0161063359251064	0.0147581582223615	0.0178771152462851	0.0189427203700834	0.0204871923486025	0.0210540070878694	0.0216860918621688	0.0210729182717184	0.0200443493214277	0.0207520252417828	0.019832088570721	0.020978149034496	0.0228190115558358	0.021201827745913	0.0181357935521927	0.019440048089086	0.0160428443733313	0.0158869227702136	0.0134413182939124	0.0152428557327241	0.016516223710949	0.0185075894758241	0.0193363828194369	0.0187821354162142	0.016299896309678	0.0179727349740241	0.0179727349740241	0.0134662154161385	0.0151893017927371	0.0146696564900248	0.0174206194911111	0.0158959204583866	0.0150565544618598	0.0136277260231626	0.0134388602287574	0.0143377489090899	0.018402118327805	0.0167292796634589	0.0178731055600206	0.0189930605419879	0.0180012392830896	0.0181523062607896	0.0161090191800583	0.0161619989165307	0.0151054951230911	0.0151636448148453	0.0138160413452826
0.0234834895189623	0.0259159391482909	0.024447919368887	0.0237068024255903	0.0231061375695271	0.0225193622796779	0.0247813662770012	0.0271878122300666	0.0258044423786507	0.0240241416537495	0.0244873151678703	0.0250358069361461	0.0257784962871341	0.0245032898328726	0.0227884490456612	0.0249272352831804	0.0252206034273753	0.0260272769148142	0.0256936932160295	0.0276501534614849	0.0276247995073865	0.0275338109385563	0.0263853692386128	0.0262198895600534	0.0266062528136148	0.0232271809151378	0.0242031057597495	0.0238004494940053	0.0240898100057357	0.0257648101392353	0.0253541940589734	0.0231444949515174	0.0210138507279736	0.0202224280331707	0.0234691081642316	0.0242499368065759	0.0233603676582114	0.0220167807384884	0.0203127291305347	0.0224740398374605	0.0209530236207867	0.0204984169516314	0.0174392924968366	0.0159126136016967	0.016072400298501	0.0167954834573792	0.0136475194868879	0.0139821180859297	0.0150982760937659	0.0160488773205297	0.0173964807900924	0.0162132564459825	0.0136237675293398	0.0137421073421561	0.0140454626208607	0.0154060440554896	0.0166106233043049	0.0137751491988792	0.0129413977263315	0.0123407328702683	0.0128685080099472	0.0135100763442778	0.0139973670651133	0.0139752752049566	0.0146829511253116	0.0158825611754943	0.015516110240413	0.0165677797281484	0.0139154185973619	0.0148103916733794	0.0142660007125621	0.0142660007125621	0.0165094637248924	0.0140893183133245	0.0145204393718647	0.0137891742541644	0.0160304468465312	0.0132894094034458	0.0140635840985453	0.0138681269929398	0.0155743688413272	0.0168945960141534	0.0201599191873551	0.022355787872631	0.0216638672820565	0.0211105441295851	0.0218586068892791	0.0220386869617509	0.0222861281610311	0.0238115356516495	0.0229566464105951	0.0225848605037188	0.0234464036920181	0.0205636796338125	0.0188661426225983	0.0189724530533248	0.0173637750081312	0.0172047788312555	0.0151618975570158	0.0148599636659477	0.0161356197444652	0.0132940897140782	0.0137346129457291	0.0158639193971479	0.0143319658392096	0.0180237495445937	0.0187010190924621	0.0198093825789773	0.0197902730826205	0.0203198031401769	0.021794931197921	0.0211100835330613	0.018441903869329	0.0180249532390742	0.019165182407417	0.0169797343448638	0.0177565698736217	0.0161544697567252	0.018042490313332	0.0163962234908812	0.0163247703676728	0.0147939263058201	0.014325800173704	0.0151066288160484	0.0151066288160484	0.0156879173864321	0.0144997235168209	0.014884000267683	0.0155531787373097	0.0137082391170717	0.0126065528630036	0.0135548385063385	0.0128500424540229	0.0128500424540229	0.0127687105417042	0.0124206226874594	0.013176263309083	0.0149074412608159	0.0167468249109811	0.018183110679058	0.0174022820367137	0.0165703356845291	0.0157973968276747	0.0166825566036949	0.0173891240264339	0.0185808504153401	0.0198744413666722	0.0200701882783907	0.0196886631324234	0.0209927955223227	0.0225692363458584	0.0200701930515542	0.0199126975811254	0.0199126975811254	0.0189592008650745	0.0199919580526894	0.0213535331199971	0.0223423795373261	0.0201236462530311	0.0195958915710196	0.0187890353072638	0.0196037106914059	0.0179783269365384	0.0177885099356402	0.0163809888158212	0.0181171187875962	0.0168924645274682	0.0184607718584082	0.0150409353855657	0.015442351412878	0.0140697097099814	0.0161089881710434	0.0167938358359031	0.0160002476650232	0.0154904122178478	0.0131457124327922	0.0137082497589701	0.0146675848775801	0.0135127434761888	0.0130416242878905	0.0102324748090458	0.00840187915819866	0.0112373532636244	0.00890130381000264	0.00950196866606588	0.00988484756299818	0.0110052213741815	0.0110052213741815	0.0111275317128634	0.0095869080238696	0.0095869080238696	0.0103374287836104	0.0111711802561581	0.0116572984891061	0.00922709671384652	0.00893773620211611	0.00833707134605287	0.0073256186795068	0.0090171528894253	0.0109074841622233	0.0109539016150638	0.0109539016150638	0.0128611875856015	0.0116331934622209
0.0146758863702741	0.0152007309631082	0.0151386400144685	0.0144309640941134	0.014359510970905	0.0155808628449003	0.0155808628449003	0.015872592822835	0.0131485440106489	0.0125071674254525	0.0112651983897527	0.0120157807582625	0.0112306143362618	0.0106129970729184	0.00960304726693138	0.00991480945477167	0.00991480945477167	0.0107428652639857	0.0101422004079225	0.00981699487110929	0.00995098524532817	0.00917015660298382	0.00917015660298382	0.00990129382892862	0.00947232575344708	0.00901492369505284	0.0100005436784746	0.0112500947468925	0.0139615347402132	0.0157801328838689	0.0150468477404283	0.016608505025117	0.0161455484118611	0.0172915421645221	0.0179329187497185	0.0178013203481593	0.0162317379245775	0.015842819649496	0.0156497163540503	0.0157085898002827	0.014412501647672	0.0145392138919727	0.0127169646315693	0.0132402683791243	0.0128213333779353	0.0140367079287424	0.0131524060371372	0.0139861575096849	0.0135607843333609	0.0127799556910165	0.0136300905886733	0.0138067861121128	0.015836248983648	0.015626887863022	0.0145139396125009	0.0137983631741062	0.0133501628025205	0.0125164113299728	0.0119512742770688	0.0125138116032467	0.0124147246597045	0.0130153895157678	0.0116986982694177	0.0140430889426531	0.0145630392527614	0.0113354915135382	0.0113354915135382	0.0110077675451402	0.0110077675451402	0.0119277042162019	0.0129746308186117	0.01561293260738	0.0157701976033917	0.0150472224086466	0.0162883229735222	0.0136318987275869	0.0118240871060034	0.0129553385846571	0.0129553385846571	0.0139244391382516	0.0139651508673848	0.0137942225081105	0.0124562205764746	0.00985604631759176	0.0118094662118145	0.0131489097000127	0.013654105118304	0.0137036686429482	0.0144844972852925	0.014886133931874	0.0165361288862921	0.0166925165070787	0.0158285447445242	0.0151901145325049	0.019036585446903	0.0188034988304186	0.019781585866803	0.0190539764913014	0.0198895508613339	0.0196400822066818	0.0196661098280933	0.0190354766202906	0.0195181644912297	0.0192002609886989	0.0211131884250221	0.0206944070171838	0.0173186465734013	0.0166810841077715	0.0169124754837402	0.0157241865564716	0.0148339252618957	0.0132875344087367	0.0124806781449809	0.013105437795028	0.0106416079752146	0.0119988751496311	0.00968073764262819	0.00920829849278829	0.00942136294740397	0.00960823710428691	0.00808963796687949	0.0079402155746736	0.00856090259260562	0.00894242773857294	0.00940449873564372	0.0081383625004002	0.00912065043472284	0.00822210547388209	0.00865634162172451	0.00855278252724857	0.00771903105470088	0.00698776593700065	0.00804369240560631	0.0107677412177924	0.0103873060009541	0.0109507290741061	0.0115513939301694	0.0133401656623035	0.0134615068006789	0.0140407924372356	0.0133331165168805	0.0133331165168805	0.0138823504116041	0.0144830152676674	0.0134270887990617	0.0117346898958435	0.00993847190925579	0.00818666742638059	0.00809583801749274	0.00665185155204372	0.00685375716213743	0.00556824464121446	0.00492686805601804	0.00492686805601804	0.00430618103808602	0.00515425900916882	0.00515425900916882	0.00692487422685032	0.00607184455103227	0.00607184455103227	0.00616267395992012	0.00622875428619823	0.00677781418569204	0.00677781418569204	0.00723988518276282	0.00924364925572852	0.0108712618471454	0.0109361718471916	0.00981134504541783	0.0101292170745063	0.0103246096004034	0.0119165874123637	0.0113159225563004	0.0112238146086108	0.0107389153560447	0.0113014526822226	0.0117789260458624	0.0102330276468877	0.0083268549696055	0.00854114174753275	0.00948422367580042	0.00906528867461145	0.0092983752910959	0.00868868541345828	0.00868868541345828	0.00874160824366162	0.00805676057880189	0.00959174314131838	0.00959174314131839	0.0104532863296177	0.0123081923659442	0.011195244115423	0.0114441288248026	0.0100935582540824	0.00925980678153466	0.00894027465191499	0.00950281197809284	0.00866906050554516	0.00935390817040489	0.00725638828171053	0.00755974356041508	0.00850601199369929	0.00739122287058392	0.00739122287058392
0.0124453909582136	0.0103061048028741	0.0120913072846322	0.0121589253180623	0.0139728483256977	0.0116035084028708	0.0122448849880672	0.00994711455631271	0.00842851541890529	0.00909696688694192	0.0104789745550745	0.0104682053958154	0.00992381443499807	0.00953329074212502	0.0109966072841036	0.00934552789169313	0.00841691103667943	0.00797877036509401	0.00984930826291964	0.0107460530591793	0.0116363143537552	0.011966228562587	0.0114563931154116	0.0107820613676341	0.00995188808787084	0.0117551422437676	0.0105432307640108	0.00965953860343809	0.011212555702717	0.0115680111687373	0.0108215960345713	0.00906413854405161	0.00855073066424048	0.00966065194997969	0.00937280652791881	0.00937280652791881	0.0101347426760225	0.00912992449839557	0.0096938162725795	0.0096938162725795	0.0102320614891641	0.00921385021844081	0.0110897326860735	0.0112246862897651	0.0101165677573	0.0108713778645796	0.0102086220598766	0.00999303173620991	0.00914410668568314	0.00970250888325398	0.00922385262608683	0.00990870029094657	0.00989521851773463	0.00989521851773463	0.00918754259737957	0.00790507201367477	0.00861274793402983	0.00809562001057376	0.00940115469336551	0.0109018168452368	0.0108436671534826	0.0108436671534826	0.0107460817067067	0.0093299689241467	0.00847284422468761	0.00918458528195671	0.00989226120231177	0.0108502696138899	0.0116248238997661	0.0130792623902458	0.0117095670605264	0.0110888800425943	0.00857851508350898	0.00924127088821194	0.00810822880654946	0.00970020661850972	0.0104820399077486	0.0104820399077486	0.0100856921018704	0.00960389555805525	0.00830961158165638	0.00860886123478615	0.00777510976223846	0.0082222752432747	0.00882294009933794	0.00936733106015522	0.00991567384931722	0.00883353148453235	0.00831416349823203	0.0100173845015796	0.010798213143924	0.00931289148467636	0.0112681421564826	0.0122316129981772	0.0120883993438849	0.0126946616688803	0.013177824214721	0.0147655091208212	0.0127478087387473	0.0127823642523892	0.0127563366309777	0.0113548209707014	0.0110531156276301	0.0126247563242242	0.0107837696888451	0.00814472155446521	0.00971983051390086	0.00915339049200367	0.00806956309009975	0.00718955410435463	0.00692493496966499	0.00638054400884771	0.00559971536650336	0.00792717315738422	0.00926085938322128	0.00745278100510012	0.00834903577657823	0.00908030089427845	0.00887292659305853	0.0081651228126389	0.0106770372956609	0.00996936137530589	0.0114083024133612	0.0119351323754424	0.0119351323754424	0.0119351323754424	0.0104132745140639	0.0104132745140639	0.00939141018960684	0.00897262878176854	0.0106107035868952	0.00967115922618462	0.0096921041811191	0.0102907666474647	0.00931389660648024	0.00931389660648024	0.0102693856686178	0.0102693856686178	0.0100670140593105	0.00996345496483452	0.0111673688762088	0.0115861502840471	0.0101021165138419	0.0101021165138419	0.00892319603092361	0.00692712352987639	0.0075478105478084	0.00759557499791302	0.00858538363685258	0.00896681350678645	0.00896681350678645	0.00875064186515317	0.00947706902971416	0.00841691103667943	0.00779622401874741	0.00889870703615579	0.00920793167772322	0.00993919679542345	0.00931850977749143	0.0102691110042553	0.00837726788894732	0.00761339394434267	0.00825477052953909	0.0076852002538894	0.00697752433353435	0.00680150809331667	0.00746426389801963	0.00654432722695785	0.00576724753708979	0.00614410095185458	0.00659126643289082	0.00725402223759379	0.00696617681553291	0.00625850089517785	0.00600932333917444	0.00496170980490128	0.0056929749226015	0.00588836744849864	0.00522561164379567	0.00593328756415073	0.00723644771511993	0.00612832918265491	0.00568116370161867	0.00501840789691571	0.00435565209221274	0.00435565209221274	0.00396345306301974	0.00491405428978358	0.00559890195464331	0.00577906574092442	0.00619784714876273	0.00549017122840767	0.00356632405950645	0.00427399997986151	0.00427399997986151	0.00495884764472124	0.00557953466265326	0.00752736229556076	0.00752736229556076	0.00781785170470233	0.00640173892214237	0.0061653012406153	0.005746519832777	0.0068770422978844
0.00906025695987085	0.00754597895923	0.00754597895923	0.0073750673087207	0.0073750673087207	0.00781822422048234	0.0072175593644191	0.00636731514448125	0.00556045888072542	0.00640604648808023	0.0076391604733436	0.00676844329849544	0.00645238628002337	0.0071372339448831	0.00838930082605543	0.00954414222744672	0.00890276564225031	0.00933034936473661	0.0101950107795333	0.0093612593069856	0.0093612593069856	0.00805360070256001	0.0096160975879394	0.00838298360267603	0.00998595855493069	0.0110027766146285	0.00906586206859646	0.00897887316617343	0.00900918104877699	0.00900918104877699	0.00720526968673511	0.00654251388203214	0.00718389046722856	0.00825174296619681	0.00668924608081742	0.00758433875958892	0.00771499907578744	0.00689039681679147	0.00693193503796967	0.00631124802003765	0.0069119128761009	0.00721526815480544	0.00810552944938136	0.00883679456708159	0.00933018370950938	0.00826233121054113	0.00826233121054113	0.00888301822847315	0.00841088870279792	0.00889159419216602	0.0079263015815973	0.00953354950007921	0.0101186521900297	0.00933782354768531	0.00844756225310939	0.00844756225310939	0.0079077556578411	0.00755835198529428	0.00755835198529428	0.00806818743246967	0.00597788834607886	0.00623349730554735	0.00623349730554735	0.00609297451475202	0.0050463255993895	0.00573504862383559	0.00651587726617994	0.00745845350145491	0.00677360583659518	0.00648163292394559	0.00708229778000883	0.00786312642235318	0.00735329097517779	0.00685990183274999	0.0074474219874422	0.00839802321420604	0.00682673496951018	0.00632488610194704	0.00804974445662443	0.00853277289470528	0.00938933150356986	0.00938933150356986	0.00938933150356986	0.00800783800516227	0.00800783800516227	0.00800783800516227	0.00899673896431428	0.00826547384661406	0.00827954879844705	0.00966289081331048	0.0082838140349856	0.00657748096565958	0.00535027251733514	0.00468751671263218	0.00554905990093145	0.00554905990093145	0.00625673582128651	0.00718067422970992	0.00781892224637798	0.00825029167968464	0.00872003182969874	0.00733668981483531	0.00799944561953827	0.0074557043232742	0.0074557043232742	0.00814055198813393	0.00727900879983465	0.00727900879983465	0.0065713328794796	0.00768578502663953	0.00751085493000356	0.00873388018456202	0.00709567443906848	0.00841928862443854	0.00835719767579881	0.00871265314181913	0.00946829376344269	0.00909520828642325	0.00909520828642325	0.0104501406171503	0.0116754337480311	0.0112282682669949	0.00933174297519421	0.00796276028612497	0.00723149516842474	0.00592997284321145	0.00684358598778907	0.00648813052176875	0.00611203734775132	0.00580027515991103	0.00580027515991103	0.00640094001597428	0.00550471024685192	0.00631156651060775	0.00631156651060775	0.00567018992541133	0.0071822836854559	0.00743418005700027	0.00658265786106238	0.00591990205635941	0.00591990205635941	0.0061817311939497	0.00693737181557326	0.00735615322341157	0.00678238357614018	0.00509838788365464	0.00509838788365464	0.00509838788365464	0.00619204981177008	0.00487949612368607	0.00514472767559778	0.00653725126081257	0.00653725126081257	0.0069844167418488	0.00558739953502882	0.0069725294892324	0.00680153382138768	0.00680153382138768	0.00680153382138768	0.00760839008514351	0.00760839008514351	0.00735756403420278	0.00735756403420278	0.00744210136521721	0.0073779407182895	0.00693077523725326	0.00740824860089307	0.00560433723885118	0.00560433723885118	0.00558295801934463	0.00620364503727665	0.00539678877352082	0.0047554121883244	0.00571486584813578	0.00642254176849084	0.00619540904520302	0.00503033106645373	0.00503033106645373	0.00581115970879808	0.00533368634515827	0.00533368634515827	0.00542357487766208	0.00544426444492648	0.00544426444492648	0.00544426444492648	0.00554160629505101	0.00554160629505101	0.00419255378949954	0.00470238923667493	0.00572834858477305	0.00549191090324598	0.00549191090324598	0.00549191090324598	0.00549191090324598	0.00441124211299893	0.00441124211299893	0.00441124211299893	0.00363763473753934	0.00288199411591578	0.00383259534267962	0.00332275989550423	0.00324740177416995	0.00345865143497624	0.00345865143497624
0.00838493996868783	0.00983381540619964	0.00983381540619964	0.0117225769824336	0.0130093235230806	0.014566393516822	0.014566393516822	0.0140473272703074	0.0149702932714209	0.0138007296665055	0.0142428996062381	0.0136642501415733	0.0136642501415733	0.014218999528569	0.0124875696594608	0.0128895526417189	0.0114291031960657	0.00825353101252559	0.00836438258328222	0.00836438258328222	0.00812670039945873	0.00624491479407756	0.00570551937456391	0.00536397185354583	0.00602672765824879	0.00675906484889851	0.00625391392821393	0.00521055436075937	0.00458986734282735	0.00458986734282735	0.00458986734282735	0.00396918032489533	0.00477603658865116	0.00432887110761492	0.00404631667601854	0.00349893271645719	0.00349893271645719	0.00313542656488399	0.00259103560406672	0.00275140125806625	0.00410770673575305	0.00479255440061278	0.00552381951831301	0.00552381951831301	0.00471696325455718	0.00471696325455718	0.00573718235906621	0.00573718235906621	0.00517464503288836	0.00517464503288836	0.00425470836182657	0.0037926373647558	0.00370180795586794	0.0028238569955625	0.00277743954272201	0.00277743954272201	0.00400023833597921	0.004493627478407	0.00477754076379735	0.0060358427697815	0.00686959424232919	0.00721358340299401	0.00806242801144212	0.00872518381614508	0.00877788569514755	0.0086928217326095	0.00800797406774977	0.00860863892381301	0.00814656792674223	0.00849693621819969	0.00669941468587251	0.00669941468587251	0.00516989853351852	0.00482590937285371	0.00553358529320876	0.00448405587712846	0.00566982342314216	0.00579213376182404	0.00686105125134324	0.00626038639528	0.00626038639528	0.00630413170902741	0.00675129719006365	0.00675129719006365	0.00654421532990611	0.00803112106922989	0.00889266425752917	0.00772291734010334	0.00945005430335145	0.00822081567767444	0.00735927248937516	0.00797995950730718	0.00797995950730718	0.00682511810591589	0.00738765543209374	0.00694048995105751	0.00729271040539225	0.00580580466606846	0.00494426147776918	0.00583452277234511	0.00495771315251614	0.00618300628339696	0.00618300628339696	0.00610671022628222	0.00586902804245872	0.00586902804245872	0.00603775583398109	0.00603775583398109	0.00587447087444332	0.00668132713819914	0.00741259225589937	0.00652233096132345	0.00583748329646372	0.00527494597028586	0.00537035891712825	0.00537035891712825	0.00518565873903056	0.00584841454373353	0.00603708609709509	0.00603708609709509	0.00707295290439065	0.00626609664063482	0.00697377256098988	0.00713276873786558	0.00812007754868077	0.00812007754868077	0.00708188249546083	0.00655505253337959	0.00574819626962376	0.00574819626962376	0.00524018150667059	0.00524018150667059	0.00492198734168619	0.00492198734168619	0.00547773208209734	0.0051318617483387	0.00474521779358674	0.00474521779358674	0.00543006545844647	0.00716149532755467	0.00716149532755467	0.00840888031859225	0.0109637654842003	0.0103989232185641	0.00975754663336769	0.0098217072802954	0.0107646954432777	0.00996282100792356	0.00988898611394155	0.00988898611394155	0.00963687923718141	0.00871230563182904	0.0097556651992836	0.00981381489103776	0.00710091202265123	0.00657408206056999	0.00668493363132662	0.00600008596646689	0.00546613575463544	0.00478088052988786	0.00470121604884286	0.00470121604884286	0.00493123106544624	0.0046687657625077	0.00392711153812438	0.00330642452019237	0.00330642452019237	0.00330642452019237	0.00268573750226035	0.00349259376601618	0.00304542828497994	0.00276287385338356	0.00231570837234732	0.00287824569852517	0.00287824569852517	0.00313542656488399	0.00275140125806625	0.00275140125806625	0.00419188954454954	0.00492315466224976	0.00492315466224976	0.00411629839849394	0.00411629839849394	0.00513651750300297	0.00513651750300297	0.00457398017682512	0.00457398017682512	0.00457398017682512	0.00319197250869255	0.00319197250869255	0.00250712484383282	0.00170506676936877	0.00170506676936877	0.00216713776643954	0.00292786556262596	0.0037051679904441	0.0037051679904441	0.00579722146897595	0.00614121062964076	0.00614121062964076	0.00699005523808887	0.00699005523808887	0.00755259256426673	0.0073452182630468
0.00406972455992479	0.00421486315410199	0.00483555017203401	0.00380117592110051	0.00408373035269689	0.00317449387458988	0.00317449387458988	0.00475889552522481	0.00516416785539092	0.0057454564257747	0.0057454564257747	0.00476316849145206	0.00418187992106828	0.00420546911841345	0.00458908542620247	0.00511591538828371	0.00511591538828371	0.00545404797461934	0.00609542455981576	0.00498849627282063	0.00451102290918082	0.00521386911147974	0.00515941050317719	0.00568624046525843	0.00568624046525843	0.00568624046525843	0.00447750198391841	0.00514025778862137	0.00486125011709234	0.00424056309916033	0.00359918651396391	0.00359918651396391	0.00359918651396391	0.00301789794358013	0.00238301942725596	0.0028301849082922	0.00276542594328174	0.00334671451366552	0.00423697580824144	0.00304739004145724	0.00279956775090503	0.00332639771298626	0.00369370169454059	0.00369370169454059	0.00369370169454059	0.00369370169454059	0.00484984664167135	0.00432788891346162	0.00386581791639084	0.00328452934600706	0.00404504679121051	0.00486910052921492	0.00578903720027671	0.00526220723819547	0.00577204268537086	0.00540473870381654	0.00577204268537086	0.00577204268537086	0.00527865354294306	0.00427190857757528	0.00564823621713086	0.00631099202183383	0.00497197546989474	0.00466021328205446	0.00291622287298826	0.00291622287298826	0.00419869345669306	0.00368885800951767	0.00332155402796335	0.00621451322031821	0.00621451322031821	0.00621451322031821	0.00583842004630078	0.00504836636609359	0.00557519632817483	0.00557519632817483	0.00595474377578096	0.00595474377578096	0.00467227319207616	0.00650508880393011	0.00650508880393011	0.00606383012174399	0.00567059745342883	0.00642623807505239	0.00773389667947798	0.00686096008944405	0.00633413012736281	0.00633413012736281	0.00633413012736281	0.00671022330138024	0.00671022330138024	0.00571115916207398	0.00750516013290822	0.00633695358563057	0.00544669229105465	0.00527234023981487	0.00396468163538928	0.00396468163538928	0.00396468163538928	0.00535282646952889	0.00606050238988395	0.00606050238988395	0.00530486176826038	0.00447111029571269	0.00267710932487845	0.00267710932487845	0.00267710932487845	0.00209582075449467	0.00209582075449467	0.00275857655919763	0.00275857655919763	0.00217728798881385	0.00146864918341509	0.00197848463059048	0.00197848463059048	0.0025991716485225	0.0025991716485225	0.0025991716485225	0.0029213259092908	0.00360617357415053	0.00360617357415053	0.00294341776944757	0.00294341776944757	0.00348780873026485	0.00426863737260919	0.00295290854672168	0.00351544587289953	0.00351544587289953	0.00358514394523619	0.00358514394523619	0.00372506068153867	0.00304021301667894	0.00304021301667894	0.00304021301667894	0.00304021301667894	0.00249582205586166	0.00269728134783995	0.00327856991822374	0.00398624583857879	0.00342370851240094	0.00273332342213226	0.00273332342213226	0.00255380685665786	0.00255380685665786	0.00255380685665786	0.00303128022029766	0.00343655255046377	0.00401784112084755	0.00303555318652491	0.00303555318652491	0.00174658869578607	0.0024778538134863	0.00300468377556753	0.00353151373764877	0.00324895930605239	0.00389033589124881	0.00389033589124881	0.003412862527609	0.0030075901974429	0.00295313158914035	0.00295313158914035	0.00347996155122159	0.00347996155122159	0.00347996155122159	0.00288462227614309	0.00313244456669531	0.00260561460461407	0.00196423801941765	0.00196423801941765	0.00196423801941765	0.00196423801941765	0.00143740805733641	0.00230335494621096	0.00276542594328174	0.0022385959812005	0.0022385959812005	0.00157584017649754	0.00132801788594532	0.00132801788594532	0.00132801788594532	0.00169532186749964	0.00169532186749964	0.00169532186749964	0.00218871100992744	0.00232950908642068	0.0018674380893499	0.0018674380893499	0.0018674380893499	0.00217920027719019	0.0030032540151946	0.0030032540151946	0.0030032540151946	0.00314578548081567	0.00314578548081567	0.00314578548081567	0.00265239633838787	0.00164565137302009	0.00164565137302009	0.00292909419565507	0.00292909419565507	0.00261733200781478	0.00179327826981037	0.00179327826981037	0.00179327826981037
0.00419006005587656	0.00558408097827975	0.00558408097827975	0.00558408097827975	0.00656121272719661	0.00823499973095917	0.00671070073795693	0.00582841530985538	0.00640970388023917	0.00640970388023917	0.00582841530985538	0.00677402667977493	0.00702644472794261	0.00644078358231545	0.00608906591222136	0.00608906591222136	0.00554467495140408	0.00472330455015316	0.00393416139547892	0.00497417208529658	0.00624982816381408	0.00602399505945061	0.00602399505945061	0.00507838368953106	0.00507838368953106	0.00504382817588917	0.00415444528110765	0.00461651627817843	0.00539734492052278	0.0062876062150987	0.00531411861552191	0.00570770161142761	0.00519567273414592	0.00550218771969077	0.00514673225367046	0.0054796249897977	0.0054796249897977	0.00523440867731195	0.00523440867731195	0.00512779314626149	0.00434696450391714	0.0058866805131234	0.00591635588960926	0.00631654104521251	0.00520604074197388	0.00526231463721984	0.00476892549479204	0.00543168129949501	0.00564317952418505	0.00564317952418505	0.00604131619419837	0.00604131619419837	0.00568586072817806	0.00476683173690382	0.0041461447189718	0.00322620804791002	0.00247056742628645	0.0023797380173986	0.0028731271598264	0.00360439227752662	0.00366373777265365	0.00447059403640948	0.00380783823170651	0.0050912810543415	0.00605481190030621	0.00605481190030621	0.00605481190030621	0.00605481190030621	0.00605481190030621	0.00593717548232383	0.00544378633989603	0.0047125212221958	0.00544378633989603	0.00489103934261795	0.00547232791300174	0.00437952633021277	0.00341599548424805	0.00341599548424805	0.00464128861512887	0.00510335961219965	0.00510335961219965	0.00523799054508788	0.00523799054508788	0.00523799054508788	0.00523799054508788	0.00298612390026263	0.00362750048545905	0.00316733286306954	0.00316733286306954	0.00316733286306954	0.00306686653396247	0.0024041107292595	0.00254270458825197	0.00254270458825197	0.00201587462617073	0.00201587462617073	0.00201587462617073	0.00263656164410275	0.00296604756497393	0.00265428537713364	0.00265428537713364	0.00265428537713364	0.00257176182766899	0.00337861809142482	0.00382578357246106	0.00382578357246106	0.00444647059039308	0.00444647059039308	0.00444647059039308	0.00431917271488886	0.00407957532652148	0.00407957532652148	0.00448484765668758	0.00490362906452589	0.00452408161691976	0.00371722535316393	0.00329008203399647	0.00329008203399647	0.00266939501606445	0.00266939501606445	0.00385516256207815	0.00336177341965035	0.00263050830195013	0.00263050830195013	0.00222523597178402	0.00180645456394571	0.00180645456394571	0.00180645456394571	0.0011857675460137	0.0011857675460137	0.0016632409096535	0.00232599671435647	0.00202251459644432	0.00202251459644432	0.00202251459644432	0.0026038031668281	0.0026038031668281	0.0026038031668281	0.00369929975963065	0.00443056487733087	0.00443056487733087	0.00497495583814815	0.00571105190495228	0.00641872782530734	0.00606327235928702	0.00553644239720579	0.00611773096758957	0.00553644239720579	0.00648205376712533	0.00648205376712533	0.00593094813514006	0.00570951846461523	0.00570951846461523	0.00516512750379795	0.00395155807335402	0.00426228986822784	0.00411715127405064	0.00459462463769044	0.00532588975539067	0.0051000566510272	0.00415444528110765	0.00415444528110765	0.00411988976746576	0.00361005432029037	0.00361005432029037	0.00439088296263472	0.00439088296263472	0.00469985568682686	0.003745119331456	0.00485561963469463	0.00492253723187211	0.00432920579057937	0.00432920579057937	0.00466209852670661	0.00415226307953122	0.00441688221422086	0.00441688221422086	0.00399150903789683	0.00399150903789683	0.00372193476125292	0.00464187143231471	0.00488767660676288	0.0043432856459456	0.0038498965035178	0.0038498965035178	0.00505704326903805	0.0047241505329108	0.00538690633761377	0.00512228720292413	0.00476683173690382	0.00476683173690382	0.0041461447189718	0.0041461447189718	0.00247056742628645	0.0023797380173986	0.0023797380173986	0.0023797380173986	0.00117259125187836	0.00243908351252563	0.00177632770782266	0.00239701472575468	0.0030383913109511	0.0030383913109511	0.0030383913109511
0.0023943080840541	0.00129086050178691	0.00129086050178691	0.00129086050178691	0.00129086050178691	0.00129086050178691	0.000714353289961303	0.000714353289961303	0.000714353289961303	0.00178960756832634	0.00178960756832634	0.00178960756832634	0.00178960756832634	0.00257043621067069	0.00257043621067069	0.00217823718147769	0.00217823718147769	0.00217823718147769	0.00217823718147769	0.00185608292070939	0.00185608292070939	0.00250737187432201	0.00226949589904959	0.00226949589904959	0.00226949589904959	0.00316815737164349	0.00238732872929914	0.00322669323952838	0.00322669323952838	0.00370416660316818	0.00448499524551253	0.00481788798163978	0.00571414275311789	0.00571414275311789	0.00422547549641265	0.00422547549641265	0.00422547549641265	0.00373208635398485	0.00332681402381875	0.00248744951358951	0.00248744951358951	0.00279003436711318	0.002981112169015	0.00373097744789056	0.00373097744789056	0.00345540969434446	0.00411816549904743	0.00411816549904743	0.00469945406943121	0.00498200850102759	0.00542917398206383	0.00584795538990214	0.00584795538990214	0.00551506265377489	0.00574446543692523	0.00521252247197667	0.00641966923749692	0.0057989822195649	0.00564606186203732	0.00564606186203732	0.00564606186203732	0.0063138030557049	0.00558408314307229	0.00516530173523398	0.00554484918284011	0.00554484918284011	0.00435844547147815	0.00334555942435313	0.00268280361965016	0.00213841265883289	0.00213841265883289	0.00162857721165749	0.00162857721165749	0.00170668806258162	0.00164603970825341	0.00224670456431665	0.00186715711671052	0.00348173723160255	0.00348173723160255	0.00348173723160255	0.00348173723160255	0.00348173723160255	0.00348173723160255	0.00348173723160255	0.0037834425746738	0.00294969110212611	0.00251695031402653	0.00257904126266625	0.00257904126266625	0.000964461147774213	0.000964461147774213	0.00142410666078041	0.00142410666078041	0.00142410666078041	0.00142410666078041	0.00142410666078041	0.00142410666078041	0.00112240131770916	0.00161579046013696	0.000953034655433996	0.000953034655433996	0.000953034655433996	0.000953034655433996	0.000953034655433996	0.000493389142427798	0.000493389142427798	0.000493389142427798	0.000955460139498576	0.000955460139498576	0.000955460139498576	0.00143920274598764	0.00191667610962745	0.00273221951282354	0.00273221951282354	0.00273221951282354	0.00358374170876143	0.00358374170876143	0.00358374170876143	0.00358374170876143	0.00395542218423835	0.00395542218423835	0.00449981314505562	0.00395542218423835	0.00304520803249896	0.00222966462930286	0.00222966462930286	0.00333311221157005	0.00248159001563216	0.00287378904482517	0.00287378904482517	0.00287378904482517	0.00377245051741907	0.00293869904487138	0.0023943080840541	0.0023943080840541	0.0023943080840541	0.0023943080840541	0.0023943080840541	0.00129086050178691	0.00129086050178691	0.00129086050178691	0.000898661472593902	0.000898661472593902	0.000405272330166104	0.0003221542607683	0.0003221542607683	0.0003221542607683	0.00105341937846852	0.00105341937846852	0.00105341937846852	0.00105341937846852	0.00183424802081287	0.00183424802081287	0.00183424802081287	0.00183424802081287	0.00183424802081287	0.00183424802081287	0.00151209376004457	0.00151209376004457	0.00300076101674981	0.00226949589904959	0.00226949589904959	0.00276288504147738	0.00238732872929914	0.00283449421033538	0.00283449421033538	0.00331196757397518	0.00331196757397518	0.00364486031010242	0.00364486031010242	0.00454111508158053	0.00348518861297488	0.0030524478248753	0.0030524478248753	0.0025590586824475	0.0021537863522814	0.00170662087124516	0.00170662087124516	0.0015620402437326	0.00200920572476883	0.00275907100364439	0.00275907100364439	0.0029609766137381	0.00314625905480126	0.00314625905480126	0.00314625905480126	0.00372754762518504	0.00401010205678142	0.00442888346461973	0.00442888346461973	0.00409599072849249	0.00402837269506238	0.00294561468005959	0.00360837048476255	0.00353207442764781	0.00286931862294485	0.00337915407012024	0.00337915407012024	0.00279786549973646	0.00300870021056787	0.00258991880272957	0.00258991880272957	0.00258991880272957	0.00221037135512343
