1.51661080675506	1.4661832356457	1.42092114072697	1.39392181343743	1.42596234257706	1.37327310450677	1.34252793886614	1.32323410851128	1.30167661332871	1.27484548347555	1.23809780980419	1.22581407681319	1.18382006048256	1.18325360315457	1.14419505252453	1.13658045005266	1.10640060888307	1.08477151343301	1.08193750612761	1.09787490982601	1.09785522783588	1.12876820911193	1.14456902550764	1.14415932228921	1.1662589742966	1.17579772938855	1.20518987593465	1.24862431655747	1.27653676614638	1.34097209488678	1.37515890383182	1.42672627762903	1.45587484366136	1.49357124505689	1.52119096358446	1.54879238518291	1.6047533793666	1.65593447894111	1.69573802048748	1.73244078882499	1.78289621846695	1.79145419069722	1.78988065930338	1.8107455080162	1.8183005236279	1.83061735347227	1.84638003535097	1.86361089570358	1.86132001477385	1.88410179126938	1.89791939051037	1.93117941408919	1.93346903281741	1.92722217216404	1.9451406784731	1.97144488287794	1.96730417124232	1.98747904975337	2.00178837192602	2.0215239765285	2.01673493871559	2.00544263150816	1.9675257605968	1.95750583129109	1.96455566909987	1.91710634502855	1.88004326120691	1.8340266345665	1.80572902116681	1.79845854519064	1.7521621870419	1.71125178619707	1.65165170716017	1.63376591601465	1.60367770305055	1.56834611397999	1.51557681071619	1.45579181663894	1.44590371296761	1.44262501086662	1.42290533243046	1.38415368297528	1.34328889384878	1.32611596818229	1.26265577666363	1.26681195336138	1.22782522459744	1.20843320805661	1.1678615149476	1.1419930284025	1.11258210724048	1.09943458780128	1.07102120467501	1.07429830755243	1.05645768932141	1.07397894004844	1.09029266644245	1.10264233724467	1.11243137313301	1.12703595880497	1.13113992201936	1.15365547453621	1.1908069521275	1.19216235006598	1.26506866298227	1.31276724119278	1.34079328612357	1.356564211715	1.40444245294145	1.42575920083051	1.44074705180172	1.5028829958053	1.53864781284842	1.58006036600856	1.62388275085191	1.65223881710938	1.68485750838377	1.67741299577734	1.71664081690344	1.71630114999028	1.71711618789352	1.72638406931219	1.72985658963004	1.74097220260774	1.73473002251551	1.77721484810048	1.78936852811496	1.80470930875736	1.81441793413906	1.81030419388325	1.8332367227248	1.83841904093471	1.84887165612397	1.85067944097658	1.8801155918169	1.88674551206117	1.86794832323967	1.85520191362289	1.81426648928373	1.80508194537139	1.79887538285905	1.78003054230974	1.717363715897	1.69141913273132	1.67599046916376	1.64942186304713	1.59058073330736	1.5623872390701	1.54152132432313	1.50449765228208	1.48847906512385	1.44376683416808	1.38455564822394	1.35602494547581	1.38262441205346	1.34705937814085	1.30722309988635	1.28967242711193	1.26753894035714	1.21371976669081	1.19228401552863	1.16912736342389	1.13165857035338	1.12424124498387	1.08345417604018	1.05964090807033	1.05563488303531	1.02551547740282	1.02519636368138	1.0200514194875	1.02892824509635	1.05093667171277	1.0623312992064	1.07122980573454	1.07459653819237	1.07965389605237	1.10886419843892	1.14047754737294	1.14386737039459	1.19098176639289	1.25689063808227	1.27561315660153	1.31204532376129	1.34184147616263	1.37236490442302	1.38661586015464	1.44205315546907	1.49236014980478	1.52978405082525	1.57366488372818	1.60582294958629	1.63764892408895	1.62763349185261	1.65578922332091	1.66139299026988
1.58130262169537	1.59942762286209	1.59286442023269	1.61063971147506	1.62294544705815	1.61196659119019	1.59973986577727	1.6098689422145	1.59489878992908	1.55750048423189	1.58877652584093	1.62592529100742	1.64352606883785	1.65741897622	1.65495828197841	1.645335217505	1.66819697294041	1.67276930307623	1.65951140054913	1.67762412059988	1.68078913712848	1.69476701656295	1.69821477889386	1.71723887379369	1.68341517323931	1.69120514150635	1.68863631349298	1.65979088929904	1.64228112072007	1.65436406291647	1.65827948411473	1.64260253471876	1.63510145981638	1.62828121536559	1.63191532826418	1.64737042617549	1.68400227526638	1.69473386036261	1.69179398307221	1.72898342911949	1.72993872698687	1.74158365629783	1.72904513762518	1.74300367185704	1.75462258675598	1.76168482789674	1.74935418972398	1.7487626907119	1.72876961159325	1.71062861883295	1.70294912829556	1.69885530821225	1.69011168304038	1.67137804134428	1.67903188141122	1.71239320198091	1.70418476384965	1.69163412876472	1.71258937225809	1.70443668536358	1.68588781579293	1.65512602117703	1.68954300316932	1.67690048426993	1.67393756837461	1.68833001994304	1.67186197314548	1.64073166793552	1.64223732651039	1.66361328256677	1.6760901040072	1.69227644660887	1.70271231966381	1.66789131928477	1.65636075727624	1.62005802331105	1.62115218286895	1.63682319883955	1.63347973267589	1.63017614238361	1.63419848650701	1.60118474091707	1.62783029892962	1.59660004445164	1.56400530824331	1.59851438520503	1.63268646123626	1.62637527316657	1.6454814238944	1.65012226508914	1.64215886945636	1.6585501938135	1.66213477516175	1.64638757973289	1.66745479009902	1.66522274255777	1.66384442477669	1.677417531527	1.67527178154221	1.66136775474676	1.65444393093235	1.64924912543251	1.64806690831569	1.62851986054571	1.63145890671009	1.62772629277962	1.59496291291406	1.58997297166983	1.57285358079384	1.56958698539762	1.5756760287748	1.61927356758885	1.65540838318703	1.62309011101745	1.64280417337953	1.66652408594575	1.67118987621344	1.66247625719699	1.67846755177406	1.67909572805848	1.68176473816066	1.68120480943431	1.65202223704588	1.65077474922784	1.63805698842036	1.61028797252855	1.60105448838554	1.59155548306706	1.5712793941174	1.58350023423159	1.60219532441302	1.60638477830818	1.59849912651234	1.59636583107933	1.60651060512375	1.57417244996078	1.5450793102534	1.56814610456112	1.58455876940344	1.58277090285251	1.58263223456387	1.57706331303973	1.53863181935005	1.53511229767179	1.56696066738861	1.54843775856936	1.57239380861994	1.60273043404001	1.57265943041398	1.54676475650789	1.52146604784096	1.51154433009126	1.52238201386715	1.52768469616285	1.54311634447721	1.52180537711974	1.50712741436984	1.51668182280063	1.49948090442348	1.49293597517045	1.51841767569867	1.52699170054309	1.5450167933099	1.56180334370966	1.56241101093385	1.54363320839709	1.56784292538904	1.57722834769661	1.55449859362709	1.57050727901848	1.57132317806742	1.579287874357	1.58627885455361	1.60514148939068	1.57349045437585	1.57471034789486	1.57957946229741	1.55956160752482	1.52348384547793	1.53610304529854	1.54502161995537	1.50103399577637	1.50757058888587	1.49642625132375	1.4819949035421	1.48030732393595	1.52567988643334	1.54661482198394	1.53074200327464	1.5670369151474	1.58405335495859	1.58328367796567	1.55940516388209	1.57466128023805	1.58458207968297
1.61769885894676	1.59959286780844	1.62646898030022	1.62976962128402	1.65246202350069	1.66125804101661	1.6752133680448	1.67521091792997	1.67668585217431	1.64937641047523	1.63450596778801	1.62332561479987	1.61769535216095	1.58122130586982	1.54910816285632	1.54391868175771	1.55366844261148	1.52905057666966	1.49662935876859	1.49664350181881	1.50580935218913	1.50680382932005	1.51452018915718	1.5005482821292	1.5078007520228	1.53337917291669	1.53042105374305	1.52549644368593	1.54395033909198	1.57480674388909	1.58097315726925	1.61580329842986	1.60376934128049	1.60390271702683	1.6347494901997	1.66193504039924	1.66443533306674	1.65397845090385	1.69969567215012	1.74342983012721	1.78140435188277	1.75864728166388	1.75432811736666	1.76369878697533	1.76294080665092	1.75680777105028	1.77794648184293	1.75049914498277	1.77015205350028	1.77343583496179	1.74278318970962	1.70003642907547	1.6821551592059	1.6847029598158	1.70253274200444	1.70830746338777	1.71461357810371	1.71114045364374	1.68816515991832	1.70374978545439	1.69647317962333	1.70977398623546	1.71282803703576	1.70750910311133	1.7208034420217	1.69996406135986	1.67775266063987	1.64010956887928	1.64991750454291	1.65419440321747	1.65175420056012	1.65186495936071	1.65454558579515	1.67058203099092	1.6491290350386	1.68163571797919	1.66382709693555	1.66519449660336	1.68188915529163	1.68007010982057	1.68445743363888	1.69479607069814	1.68756867646964	1.69572659226042	1.65031310550083	1.63373356164411	1.61259381053828	1.5891966592276	1.57619656060858	1.56071871014334	1.54633902371679	1.5239845276152	1.51902521231785	1.49304534382615	1.46929422418091	1.47923008896957	1.51469326209379	1.49225406470151	1.47865196920012	1.48512542024661	1.51804143048261	1.51910945359255	1.51345825210128	1.52695816945269	1.54257067528711	1.56124539567675	1.55667650316515	1.56240649887023	1.54328271299025	1.56548960016261	1.5934685450589	1.60870737014696	1.60602184597318	1.62606580170709	1.68738052150195	1.68670548866645	1.68623549369429	1.69649589268338	1.68968546026106	1.67458829017898	1.68994759434197	1.69739536319662	1.66896029782932	1.6759947763228	1.68681173352305	1.62899980773129	1.60173267149191	1.59071937135591	1.57421815224396	1.61531229146863	1.63438021026522	1.62307118011441	1.63542909168843	1.59922559251445	1.59860341508575	1.61466785721991	1.59394467010618	1.64533128876658	1.61322899643444	1.63013236959508	1.6184198370279	1.58993089348441	1.54184865274816	1.55589272759702	1.53931992224727	1.56036009839288	1.55174041122735	1.55646995931453	1.55785865670782	1.55684661434169	1.56919905288223	1.56593974752817	1.57719972087685	1.58035179800438	1.59027397962686	1.57211586880814	1.58398552293705	1.57704258404015	1.57114662703571	1.55392169058125	1.5403991750319	1.51481295376483	1.50412814870519	1.46597347382026	1.45004083477627	1.45048188350205	1.43790445985524	1.43040282521056	1.37131254029619	1.37791642275908	1.39036549048302	1.4020390058867	1.39051675521969	1.37128125952449	1.37200618706952	1.39529424795934	1.40334277881719	1.39319519582365	1.40318231256465	1.41773121856768	1.42761952190251	1.43573778903201	1.4307966530981	1.42621680151002	1.43861064147083	1.46206907008195	1.48783293929144	1.46370756924055	1.50960763349108	1.54761592424301	1.57163841589875	1.56306161659695	1.55339021185185	1.55787707191143	1.55596679090218
1.47343530549465	1.49859362157778	1.52663145792129	1.53137130328248	1.56183133182215	1.55671165211037	1.53069498926013	1.5219083978435	1.49315397656186	1.47289973544263	1.48226867950032	1.46977742152104	1.46207098511478	1.44628279987737	1.43855414655017	1.4300017875253	1.42309413679971	1.42255818517535	1.42786226566094	1.42139961332717	1.43557496171421	1.47060711791378	1.46401712306489	1.47624276222147	1.47060083422433	1.42784578727488	1.42655944254404	1.42791648314368	1.42550535541088	1.41968986289121	1.42722589653856	1.45138237547647	1.44724490681496	1.45852746726357	1.47323259165629	1.45814871624519	1.45684544606989	1.48511865763061	1.50805065776401	1.50260932731675	1.49281911502531	1.50764846366428	1.48968880844523	1.4859183246126	1.4884869170437	1.49949548351738	1.48433872044759	1.4700915385245	1.48664036835301	1.47169002278473	1.46298805497325	1.44152500055045	1.48067972111972	1.4974165426341	1.47039656728547	1.45981297059856	1.4546030731333	1.43541868577679	1.45155359101772	1.47029021001316	1.48621925610815	1.47901620800943	1.49452399202302	1.52752863747764	1.5053799126841	1.48992706760148	1.49237070348349	1.49704873232763	1.50179682850911	1.52513343975153	1.52288618382419	1.51048413556525	1.51032067656044	1.52483345923956	1.54434756678309	1.52470561459855	1.55821926466276	1.56617928383856	1.57855597390842	1.60450416790241	1.59963876925511	1.55968529546054	1.54585606793947	1.50764066314134	1.51464074624658	1.48662416069859	1.47030293615374	1.46904756392345	1.4386723354942	1.42969327620152	1.4214467448173	1.41161566000912	1.41349809389886	1.42948185927507	1.40959878314219	1.42807889751675	1.45224776807267	1.45938144157819	1.4743300185371	1.45657747928468	1.41514149647868	1.40781960033591	1.40645702031526	1.39520959870872	1.39681914739168	1.39237276154675	1.41052184827712	1.42803469703453	1.3962893486034	1.42712974436511	1.39824847104725	1.39431157737887	1.4215529763451	1.42323154734016	1.43176999071202	1.41124576004386	1.4198637648554	1.40763230596245	1.42465573693502	1.39903619440468	1.4176873103302	1.39410100312791	1.39176694130168	1.39931158241204	1.39975363244667	1.38098879416197	1.37717875426503	1.41514586576021	1.41172001748381	1.39612832972749	1.3859755167896	1.36875134151643	1.36900225341365	1.36280320263145	1.38232886586146	1.38819892777113	1.39302268159801	1.38899107262048	1.432154105417	1.39027366160775	1.37338441491262	1.38011108097476	1.39030178218976	1.39680642803873	1.43223522954266	1.43212574574316	1.40362824599763	1.41349788408106	1.40734196739932	1.4347893209661	1.41471053402373	1.4570303832721	1.45889561829934	1.4668045037982	1.48278730929014	1.46756160416696	1.4499699170084	1.42486990785813	1.41053590270759	1.38521281438324	1.36736803048344	1.36659424972431	1.34400050328229	1.32590987780419	1.30059140362559	1.31412141113136	1.2792748945296	1.29895674071845	1.29264172919783	1.2965607144858	1.31058309144169	1.32528657473326	1.32673096010952	1.358200092374	1.33617251308494	1.30965135729435	1.30893026339597	1.30360372279435	1.30790834737484	1.29281133182649	1.29503106230485	1.3078657035593	1.32099128670662	1.28981145801481	1.31336442252109	1.28894647227092	1.28037185337437	1.29800400281125	1.30737142144165	1.30537618051283	1.27989788536612	1.29398987045033	1.28515499068551	1.27040274473156	1.2693611346288
1.21040774325735	1.20478811749449	1.20266029239997	1.20308855836356	1.19126984689166	1.23541070427381	1.2285829086113	1.22132008694525	1.22780667600743	1.24342504607312	1.24276803763516	1.25313596557706	1.24729647743981	1.24889869831576	1.2518397830421	1.23075881004283	1.23431162735539	1.20638135146812	1.21623625823614	1.24794167421753	1.24705192940946	1.25532541177757	1.22901445931384	1.22030778674874	1.23200842994577	1.24843247420035	1.24304823467632	1.27051134689315	1.31087887626371	1.28167818930043	1.28862515658396	1.27968586622058	1.26380328309827	1.27681284125801	1.28003324690653	1.28466784553211	1.30204033951595	1.29100601704452	1.32367836716528	1.31983249116872	1.31322576948139	1.29778842798994	1.29896322964241	1.29142305834462	1.30199734984545	1.29197681864944	1.28036727965595	1.29035330482225	1.28743159793578	1.2787571692264	1.27895239745848	1.26859648579473	1.26039805638225	1.28900419780298	1.2990354662939	1.30901585688964	1.30241015123144	1.33453680504778	1.35257417205915	1.36557649674522	1.38403386810142	1.39306252979621	1.38502668192217	1.37018525778833	1.38701454465206	1.37143052840484	1.3703371940128	1.36183990460082	1.35101074294989	1.33107275636274	1.31725755715143	1.29628248650561	1.25509526685143	1.26428110939533	1.25065179405878	1.25524878009695	1.24502654894173	1.24442928514794	1.24528943323691	1.23478900856527	1.26520022243277	1.25288652497795	1.24371167068763	1.24191898131988	1.25510789527336	1.23946011016095	1.25275175271909	1.24266845707975	1.23957900949251	1.23965262455582	1.23240646995342	1.22489774288223	1.21113758866897	1.20708195747187	1.22684575651623	1.22941469577182	1.24242926506077	1.23422660326062	1.21445312136395	1.21813718051164	1.25123927805953	1.24318913848625	1.24512433972508	1.28280174327704	1.2542132801609	1.25792277338277	1.25152614835922	1.23594072501288	1.24341773238135	1.22347708779577	1.23932836511548	1.24611615087195	1.21874646419703	1.23938263689939	1.24655727411621	1.23286066445216	1.21817222153913	1.2116098139528	1.20249947876897	1.21175864790106	1.19978881607143	1.19083443838369	1.20040691195048	1.19759526136239	1.18480133049002	1.15997064920837	1.1634052653274	1.14905234570764	1.19053770780176	1.19692370845974	1.19932472227775	1.21764731504499	1.22263274917628	1.2479142086592	1.25526887458492	1.2663745592125	1.28192275666047	1.28498188529636	1.27143246291654	1.27615038092402	1.25542576162719	1.24655065324384	1.25631652740306	1.23750389025467	1.22651692829975	1.20084915900041	1.18765562831262	1.14657451755069	1.15080983244197	1.13253594644587	1.1526778323767	1.15153530711724	1.15453664302364	1.1539348817409	1.12157343435819	1.1497217816289	1.1484382404249	1.14776703393584	1.14177876898962	1.14213809210111	1.13588217940509	1.16731033423521	1.1375259789728	1.11555860789496	1.12651887737678	1.11734982640907	1.12403044306011	1.09724212904378	1.08150087259929	1.10451704498429	1.12435999906844	1.1265549920627	1.12593994555489	1.09053736777418	1.09917602993088	1.12955401840677	1.12276921582142	1.1150641464813	1.1357405631511	1.11670259567671	1.12466223214177	1.11479644951817	1.08013879313119	1.09552779834392	1.08744080569975	1.09136264304214	1.08378901882599	1.06549030670579	1.08363409779743	1.09472375065714	1.07674718762095	1.06322012226623	1.06868616614633	1.04262860954642	1.05205873712215
1.0244985697802	1.03053845437962	1.02367412941697	1.02968893124178	1.02877355071966	1.0143743592063	1.0038195178774	0.993058598567143	1.00775688545534	1.01861287717749	1.02645701089595	1.02085171729303	1.03051799887675	1.04264936561553	1.05162935811675	1.056075168437	1.05422442184072	1.04058021983021	1.04669985399263	1.02797626183529	1.04640438539282	1.03139452377821	1.02755383014023	1.01735971247719	1.01176787586279	1.01061218949839	1.00785023955563	1.00045887603754	1.01218964502557	1.02328756116109	1.05130914722005	1.03856812939265	1.03985575656309	1.04583873249625	1.06792027847568	1.07587744358522	1.08344950540649	1.09841074222677	1.08272514424661	1.0764465836684	1.07684102260186	1.10292424340447	1.12583354091634	1.15147239585943	1.16725091272524	1.18311026461589	1.16883562057727	1.17701259293526	1.2028720444663	1.17800259148522	1.18237076674056	1.20126243368683	1.19291485689638	1.18423179162134	1.14639701391389	1.15523899226709	1.14961764533626	1.11770116402747	1.12030244191801	1.11917000155899	1.14060053719551	1.13599438698399	1.10560985353659	1.11977282477507	1.13329394310054	1.13237804992926	1.12065502571097	1.11489086337714	1.12512318826958	1.12779768198727	1.13194927139141	1.12172794299905	1.10862875170061	1.09295120761111	1.10694918014551	1.09686396958513	1.08071282025035	1.08019323931929	1.06211537311495	1.06072013641345	1.04073022859557	1.03192005718891	1.02040743783731	1.01732655374116	1.02426999818452	1.03159728258317	1.01707515154134	1.03962074085382	1.02912267353974	1.03330601863769	1.05946301473847	1.04460000535871	1.03594406157769	1.0421306291449	1.02454549197581	1.04379231790314	1.0314071265986	1.00981796012704	1.0127699814239	1.00214086334461	1.00925633601838	1.00745119910535	0.996175047999316	1.01045443989796	1.01176498986085	1.0184701269365	1.01706561833952	1.00380823856913	1.01856984311442	1.0213238743361	1.03207121106602	1.03343419106662	1.03843422418517	1.02342813400922	1.02134998495005	1.01279837765237	1.03048690891953	1.05421898973318	1.06182115024128	1.08105246303423	1.0909157809819	1.07328286860355	1.09163559463133	1.08348504399209	1.0927035722428	1.1004258388255	1.09924327604088	1.10893346976225	1.0933913307117	1.07104881189647	1.08347575392016	1.0611178736415	1.04346571836467	1.03508385172994	1.0398610916601	1.04924589792358	1.05598814867722	1.02763904502004	1.03889866526401	1.04770477706326	1.0465165762454	1.02952985018661	1.02486943766167	1.01971730155987	1.02626965233138	1.04597961132096	1.03597446766485	1.00749750179494	1.00559001854817	1.0116733990367	0.998779723921501	1.01082990666689	0.992136335630111	0.977150110122459	0.97138133352695	0.955865338199344	0.959442437271502	0.928902641670724	0.924168540518014	0.932558134896485	0.934922051413254	0.915160721920945	0.922219020260029	0.927067373211947	0.934964260773871	0.943932464658232	0.933933883985438	0.924621833924777	0.916653754375922	0.915551274790744	0.925699547873662	0.900331425540476	0.897351931562295	0.884135371664706	0.879557306975807	0.881083692924519	0.881011244288101	0.877284169474649	0.881953518283744	0.899420039467118	0.890229991524345	0.889952538442006	0.880179975087351	0.883990130048009	0.893964233066376	0.894541956885961	0.902264679468507	0.902940905730804	0.882946805480572	0.872593049806914	0.869519084233398	0.892734140077009	0.904358243897007	0.916187100894633	0.923227430131289
0.832399264919085	0.858039151499086	0.819828868797419	0.803003926115032	0.794071504277484	0.811085069349272	0.822831057316291	0.8234543203589	0.825312708248604	0.829441373088847	0.801067610077213	0.794784535868347	0.816459640102284	0.801007269266989	0.795601481406771	0.820264711477748	0.859448303642414	0.880008795576861	0.878105964290727	0.86864173694337	0.883866133888251	0.882671171975747	0.88835017379589	0.915840822837372	0.895479889855921	0.875452333555159	0.899750978721545	0.881103080467797	0.885126615921319	0.862889492891752	0.856139041804133	0.880614778603313	0.873720953199116	0.878455882480155	0.872622110158471	0.864292870192947	0.880765834187569	0.89741689841716	0.898387762945295	0.886974823481228	0.901498905954565	0.902434418182796	0.916984334563682	0.920671482875709	0.941373404756259	0.922611463658726	0.931151788400075	0.939130141774395	0.928272697809795	0.920610079610508	0.91420292714903	0.92427560886778	0.889874627522565	0.896549808827094	0.902322621205223	0.89640904813434	0.898425000716314	0.909256264635347	0.912061418418515	0.921531564247189	0.939250955733016	0.94940739505957	0.948694207708024	0.948425856659861	0.97584408993121	0.977016764386001	0.972926193440558	0.936660472656264	0.933537479913819	0.916303106584988	0.912223728448386	0.901695690054372	0.910698551804662	0.907336153353606	0.906484109401058	0.907741281353598	0.881621345754222	0.883374629166988	0.867899763355827	0.84198896483311	0.843013193086464	0.84845945744851	0.844014422710682	0.828828011753048	0.833216066100194	0.803259742018801	0.798677221036606	0.816462373322448	0.802294317926453	0.791604426654718	0.809856289108559	0.840452334091458	0.867095136772437	0.865156331913075	0.860386342167268	0.876546723241212	0.873890661598488	0.880569822030811	0.899570620523336	0.888711158544655	0.88516118360269	0.889010271454187	0.879483605419686	0.87237821390824	0.839004235059225	0.843702027010961	0.850337920795786	0.836819407761973	0.832790231432379	0.824891845041528	0.822842421282731	0.819593174918039	0.853152279025978	0.836694088817933	0.838549541396071	0.851504668111525	0.851862255343232	0.867176868345649	0.856531797885621	0.878743017770125	0.861150336668103	0.872702336732142	0.869136119282619	0.867734494384869	0.838136691744218	0.845326334671539	0.85149593785326	0.819238613049486	0.82691605730015	0.831687076555501	0.825599985804854	0.819272678352955	0.833481451958238	0.832577964964678	0.853177090277875	0.857735514469084	0.874273373919803	0.866561347429816	0.866476367043707	0.889557390722793	0.891940949865012	0.8702942504467	0.86263808582347	0.845731785558717	0.834238532250553	0.833963145413764	0.824721624038175	0.811542377161328	0.824950218125264	0.821147529193511	0.825568797302001	0.815577136404153	0.815112367617719	0.790252858649874	0.765295149088084	0.765289807296834	0.770868068255989	0.766366277070211	0.753889358838161	0.737288918292915	0.726941478730127	0.706115213399013	0.72586137655445	0.718033365015668	0.700492123479588	0.71924025112074	0.731482359140804	0.776360673552447	0.76291086641238	0.756738773777658	0.76930170353992	0.764799815071663	0.765903439232704	0.781279680651078	0.773780155985378	0.754442122462576	0.769396549541424	0.760219196454508	0.777154912858534	0.743695601717322	0.730042380396606	0.756244907178778	0.729523377563615	0.727017196123026	0.724310305579047	0.71234129040354	0.695206680510928	0.721982690873535	0.712961866417907	0.712050334175347	0.717471090950533	0.72379329727547	0.727662876757959	0.722359023577405	0.738420930497374
0.723469372518162	0.717716757175211	0.710233988946474	0.738142095725145	0.724346253044752	0.739957261163976	0.743841082712059	0.753203774655894	0.751910233104802	0.747260820662007	0.735369090426479	0.725646850356698	0.714676441556624	0.718142049610134	0.724996268539945	0.702417779029826	0.699868986865701	0.713319820730072	0.668096607204542	0.668143721383797	0.646349253311844	0.656685993086162	0.660487260403697	0.66762008784003	0.680232398805485	0.663123711564062	0.659432393226386	0.659481917861488	0.63900072132359	0.644527205164005	0.643802719953608	0.646170367944118	0.671708109571978	0.672111343975557	0.669411745508629	0.675187457899865	0.676098984747959	0.708788421956988	0.719925478303586	0.72063556317483	0.739719666234891	0.736807974794704	0.725373088332549	0.727129318458637	0.71433479874652	0.717647360672068	0.732997446157004	0.753831011944963	0.745484874875919	0.733996996691637	0.751876809972856	0.748639775289734	0.739331270999151	0.759644674028611	0.767856325794637	0.762376359187703	0.775759840066913	0.78612186186796	0.79931910148067	0.783899902815748	0.795700884366343	0.799895646541194	0.79441277952113	0.800070922821629	0.818810800311765	0.811982333255968	0.796177936207139	0.80946982791701	0.805147778067713	0.802982365596419	0.770821182762994	0.781192930363283	0.779812452573315	0.783042197397339	0.766969315532493	0.782746544863476	0.772772234930669	0.762503650109785	0.776707238014803	0.770569126766064	0.767584113013629	0.773492851265871	0.780961487012293	0.774133210863891	0.764697998090905	0.749960650838667	0.728349886480991	0.713956889262528	0.709735700062735	0.712541589698231	0.707130675011472	0.696892461369435	0.693418746183989	0.663717551519316	0.663442502073101	0.637219339767643	0.644781461613097	0.654264786697254	0.665228947370049	0.67371483599097	0.657057104514327	0.648041481200405	0.646983626612875	0.629052501948952	0.624702907243528	0.625723796994854	0.620715125876721	0.641659317047047	0.638380413219702	0.627261004683534	0.620086152496819	0.6274702389852	0.655314210905911	0.658363573802763	0.654295719492066	0.675011119681928	0.674107134741217	0.66323496243283	0.683295034672318	0.659572878607502	0.665071595428761	0.682184705157492	0.696287806333172	0.682366179211264	0.683329213862221	0.680764854457111	0.690323389131119	0.677019874142684	0.690184602047993	0.693635358397812	0.686605858195144	0.705738538718662	0.709870650584538	0.70267774049531	0.696750999432135	0.702009241939584	0.701883696246734	0.703358136650223	0.69709350762218	0.709901197283614	0.708508290908648	0.690610079074253	0.712017125305681	0.713896667022681	0.716248713816225	0.68888776699104	0.698956692707165	0.68693930477714	0.693249399592866	0.683521152906875	0.692436705934609	0.6887330509884	0.676579738762423	0.687755274271113	0.678526550893164	0.670872922146266	0.690845828565736	0.684720134722376	0.680094744340982	0.668926454597608	0.656750983502009	0.642187989218309	0.633775562845094	0.628600561101152	0.638691026285538	0.614340290489029	0.625401898163923	0.610599654192848	0.581128993095875	0.587143761661924	0.560573865220157	0.582320968162467	0.572448123265495	0.582337152607341	0.582690430881071	0.568390349236545	0.55891040849643	0.560531896253925	0.55049157788135	0.53844773352691	0.538971606549161	0.532413427355665	0.556154023650789	0.555922247766974	0.55289806623777	0.559128806792923	0.560800526274394	0.579602497855123	0.585636285287605	0.583843674196613	0.594873057056463	0.595129621338622	0.605731549701476	0.596944317360718	0.579766757955958
0.543858204189009	0.54724367955168	0.548546451438659	0.537702818980364	0.538317105900002	0.531419137997184	0.554200177959584	0.570692866460132	0.577013081724807	0.580273188722559	0.582372713544415	0.587410161737504	0.565467637146481	0.554578654921232	0.563965849450216	0.580220569308713	0.590910996247735	0.588972022203484	0.583395911449135	0.572738221141345	0.563954938000176	0.56379380170722	0.573761935244656	0.57064304069609	0.56301767548168	0.573185598850296	0.580286494828843	0.571293473079941	0.576450887154924	0.575692257770349	0.581697137543114	0.566093295816449	0.578116826339032	0.588708232104448	0.581136522044403	0.586940877215813	0.597150754436103	0.605764116582457	0.587475705634416	0.594519827237077	0.593548974831673	0.601357295247763	0.623603867916257	0.618189630927232	0.628904522202236	0.626556651900621	0.634763346510957	0.627394020194972	0.636936468407624	0.633191531146248	0.643354639130438	0.637349449964621	0.642580926565495	0.634122586669301	0.596421565514329	0.615294397130425	0.602118609854807	0.603889700228318	0.596240746358167	0.594224037455428	0.595473636869445	0.600257920448178	0.603648798309447	0.610611962484214	0.613773769794995	0.601100151785369	0.6170079069721	0.615283906520306	0.613767392561927	0.611574599299759	0.594883966570972	0.596788633797393	0.609030609990212	0.588552633224515	0.590267079822552	0.576922882606924	0.585316667806878	0.577590677549231	0.56922396270012	0.556047195953102	0.555294548050168	0.577210360008969	0.582670806014708	0.597170016394099	0.586255519332646	0.589108267051224	0.584146006885727	0.573244680228084	0.557697937857908	0.551527502371903	0.567762825262812	0.584387297833397	0.578690782562414	0.578015242472593	0.564458780706805	0.561446737806425	0.549976812093269	0.560682902750104	0.565337637234452	0.564373996177209	0.568449233015259	0.581844238761109	0.566898899720081	0.558316778240043	0.56217401501796	0.548828804427101	0.541544277943767	0.544621236756157	0.544979336034997	0.535256919599487	0.531502658895262	0.537553031403199	0.542712860019794	0.52706388037686	0.530760710646744	0.530456790655335	0.538168922288448	0.556686962849991	0.550823953636209	0.566738948586386	0.573376316437984	0.57576678625025	0.566747789935752	0.565007740701095	0.574270030869649	0.576951977512827	0.575920847151874	0.578932209349217	0.575709407990109	0.545993639562263	0.552023167230119	0.546021023789192	0.540566366864519	0.534354483294528	0.529845365127758	0.53518997093869	0.541477894405006	0.54350262607449	0.550512150181544	0.547847408445782	0.545618886997071	0.554970614337789	0.544411117281343	0.544240788498208	0.543839943301137	0.531723899731511	0.522683209437716	0.530813317505433	0.522357123639068	0.516797422439883	0.522757341617166	0.516416344037595	0.513227586594213	0.500607946210281	0.489048738580238	0.487391323633411	0.49504775115925	0.518478623623322	0.521293956251218	0.511934588891469	0.514527141260899	0.504294586561298	0.499216094456221	0.490305770433859	0.493387682771539	0.499580740781293	0.514164047912249	0.500939745074337	0.492950628549076	0.487243208515974	0.475390499711478	0.478405057947797	0.483901184415134	0.482948801144299	0.483542868462245	0.480713088740847	0.495305433987543	0.488236847366018	0.490238828378631	0.500826572870661	0.480350039958671	0.475456273800557	0.480066553426836	0.48702704598264	0.47292956865885	0.466421533396038	0.470550391837253	0.471238468360783	0.466382023204337	0.463683574582674	0.463394075243819	0.470041879039825	0.484196884875584	0.486342272097731	0.492648173188043
0.46531098507321	0.462779562728421	0.461500211873573	0.465576936212709	0.473764227876083	0.456717780694139	0.447467968960955	0.457854021490189	0.454047498128155	0.446831524447686	0.443363660856905	0.447936959939924	0.445062337535814	0.442548502100619	0.454288421347074	0.450155335797458	0.455176731423437	0.459436890016225	0.466293674018982	0.451004161126633	0.450930030657512	0.444292019911906	0.438360693162911	0.444119365147412	0.447391097718861	0.450796644053653	0.452441685358505	0.448728469532077	0.440749904950137	0.43373092456675	0.433724511748883	0.440952556871176	0.446195164191469	0.470687358711506	0.463296634598055	0.474280991250408	0.482559477016828	0.488410601939425	0.513436026903572	0.518170357747646	0.516352851552749	0.521884935776781	0.521508226826926	0.521794430100529	0.512461524533611	0.506641060110832	0.491494368085647	0.493674378380726	0.485266760846834	0.452090468944309	0.446013151628572	0.43603808744116	0.442361108454183	0.439701482647061	0.446363598301938	0.442264929882085	0.424317575906085	0.413542131073747	0.418109766551389	0.415001560513127	0.418212579672601	0.431915221410131	0.440823600059947	0.446955067863306	0.445613496680647	0.446642557316496	0.442738594388252	0.427239598173519	0.469858551765877	0.47930264831368	0.494223441093149	0.491907836752853	0.501722971421398	0.503227364049131	0.492234933202616	0.501483908179373	0.489520777563421	0.487936681832844	0.488089999243177	0.493969087938429	0.477283256482709	0.466326913180713	0.466606761311153	0.458477381839403	0.460949836986291	0.457132007848982	0.447718644707626	0.45031596783619	0.439918099964416	0.443539733422035	0.443386071150092	0.450251197685062	0.457063457670185	0.452835319703448	0.447125773630955	0.447069656260762	0.442516194588516	0.439571044150326	0.439006653217418	0.447465370021121	0.449660078821944	0.438786537129118	0.439429647782518	0.426336710777953	0.42086660002466	0.423068261204885	0.42735255480817	0.420625397032568	0.434752157885456	0.438810808095182	0.444074462325187	0.443742284037666	0.455231132326706	0.470908350774265	0.474688933790068	0.485002209774522	0.483295949372956	0.481327195303896	0.479802450639945	0.479981719891482	0.466868120901344	0.453543933314362	0.449428875507039	0.443858120547519	0.41586179255396	0.399454583964036	0.38283197797517	0.390283287913251	0.384386551934453	0.390708915921537	0.398309027722076	0.385088019901159	0.369977883640982	0.372148090148984	0.36808748035424	0.371214908606219	0.382297380855694	0.398537247376776	0.39855441437909	0.400870619442423	0.40667230291627	0.404015340381468	0.393519244530628	0.413464704356032	0.428232158138105	0.448768618003792	0.437480224164338	0.460362946109166	0.455847281560415	0.451083036017525	0.437263469709706	0.444627741496012	0.43562323557833	0.431579588378279	0.438723465424544	0.425069998564531	0.411886771980399	0.397406996379535	0.397966829795339	0.392536344026167	0.386924978250176	0.376916750901687	0.387031736130405	0.373633883888914	0.377347343356034	0.372249920176912	0.382209557327699	0.392262314481294	0.398776108329429	0.395398795120207	0.391612650037632	0.379768396411994	0.379282814645619	0.377626247571593	0.3802247156419	0.379507442455968	0.374940806191425	0.366613243037795	0.367013096100529	0.359185359273836	0.356467851785865	0.355964949585827	0.369433930037402	0.372401951712829	0.371130333923324	0.380335256712977	0.381632947399655	0.394500999256855	0.409557003222827	0.406637062771549	0.407302545273441	0.407103337346972	0.409640205673786	0.411796820377642	0.411665693611652
0.337314531929852	0.326073328416776	0.321192292498254	0.315628684826058	0.312015988717329	0.310524682310385	0.333328512146156	0.337852655461229	0.33196387421968	0.343124827358807	0.336008532263247	0.335638856423922	0.33485368759956	0.348520235250563	0.354776861594953	0.358131548380417	0.356840379998918	0.366170204028923	0.362297706770334	0.340128568612878	0.340159876365372	0.335076686243822	0.326743442169614	0.323016322982671	0.315754717507895	0.315359854415744	0.310727504179756	0.30948533529418	0.317288001033342	0.315889710735223	0.308036246605566	0.321586787216206	0.31915361949521	0.327230837773203	0.344780189805781	0.359022958617001	0.372860703248721	0.384918008276151	0.400977588831457	0.398510604801812	0.397907741541333	0.39257866809846	0.39516327660922	0.401008671691316	0.410600650891063	0.411086735651192	0.413661333194624	0.392234465242495	0.367968903673584	0.361102496314594	0.344683514271891	0.347512134491541	0.366343092828434	0.387104878877978	0.383424329543822	0.387170585640687	0.387847584520493	0.382155505409213	0.387124988470753	0.397721166826053	0.425610011346073	0.429970700370971	0.430337469292847	0.424537005656268	0.413375586091987	0.400156115300009	0.406937062629269	0.403358616962758	0.386982184737762	0.373735575029864	0.370173737299431	0.366192976645187	0.35334615238629	0.363010443139146	0.36216438905338	0.365780368578407	0.355265355121924	0.345673001747027	0.335986450600256	0.330573882097132	0.328361851195889	0.337021036698684	0.349385323274088	0.344675970476075	0.352682383426856	0.352537910475225	0.338768232309902	0.33740584982406	0.348752276301531	0.35327900836196	0.353870968978996	0.355817716180156	0.354827198830902	0.354513148759023	0.336759101779028	0.338367769891351	0.332877037145428	0.323761438200414	0.322843994979297	0.318998985826849	0.307537375490691	0.306968130925574	0.304446375646271	0.311424420432562	0.307593160651574	0.300709888213935	0.301696610117334	0.300297452448452	0.299073841797596	0.316680628043703	0.325221820996398	0.341279883018586	0.348294087684134	0.358535667386472	0.36172715595427	0.361130622953808	0.356490948202775	0.356839674366789	0.358955342739314	0.369528541580551	0.377725115415833	0.377451671671559	0.355762733787247	0.333893263865246	0.324876909912974	0.317507844935523	0.310374350233083	0.33296022066009	0.341753608785282	0.336367073779184	0.339236467626693	0.340626506147576	0.346870470811013	0.341029823736481	0.353252745219821	0.370442952590435	0.37438950896861	0.384775088465683	0.380715631701193	0.377674821734022	0.360377912514636	0.366601305857366	0.356783818824037	0.346120395358309	0.329114601211253	0.327017072755847	0.322645532220978	0.309070595291483	0.308985495610315	0.307672102748684	0.316893916209139	0.297491512901224	0.293516293816387	0.279203171825431	0.287551965961225	0.279466180114876	0.293000116372846	0.307434010354841	0.302230662958372	0.303578689441808	0.297499433405536	0.292986695451743	0.289491117058155	0.295976993076596	0.307676877149029	0.306712263890643	0.303844057815063	0.304127390279307	0.303999479119352	0.286068496365694	0.286101160528292	0.287127644813099	0.278050866746356	0.279055114348451	0.268930013363839	0.266217175947612	0.260091686212507	0.26177433801171	0.264864674546701	0.265156285663152	0.258248108345803	0.260378126825004	0.254821933113571	0.262158316341919	0.276776656833467	0.276563017389843	0.295539160832364	0.300998572179753	0.303801623881364	0.311349034270235	0.304551586914683	0.29956548425423	0.305434908125438	0.311189174554687	0.311648577457572
0.268762399950965	0.258929108596264	0.248071709956194	0.240492376097475	0.247568150733473	0.247408819511021	0.244675257942154	0.24673705098531	0.251583513913026	0.251084603818793	0.261385749687125	0.252840387472252	0.248636839958601	0.25443485344544	0.2587213632854	0.258664357981061	0.24837636256313	0.243978779806938	0.247160003479426	0.252135902393384	0.256739804589486	0.248178503599531	0.250938877538535	0.256888611905321	0.254366858044235	0.251934027346885	0.255437028497442	0.270063827544358	0.278992458399415	0.2827252514546	0.286008226534184	0.289641442005505	0.291490685655142	0.288489166329965	0.288507079186574	0.280412510848782	0.283168435196675	0.287688835169661	0.286028535331164	0.281541795173734	0.280641319676744	0.270654353055573	0.263666632835774	0.260446813134021	0.260438380481134	0.260264279262368	0.256229167946536	0.258829739877423	0.26006412290891	0.262299969367654	0.274068125346346	0.267571583723478	0.269996227697625	0.275418107667693	0.286704108540903	0.2872833258697	0.28758575420104	0.283450850941539	0.284927281856203	0.288563709868981	0.286218386594822	0.277916758958082	0.270260934951668	0.283853369966101	0.282854791192367	0.286353811020278	0.287070904203596	0.289685736656926	0.282713863976247	0.283940789953777	0.285947228067031	0.285038005720653	0.281304527229447	0.282489096376597	0.292446042582017	0.289295513762186	0.272110090858144	0.25965827185393	0.256665578464742	0.255837354984572	0.252752444848849	0.249707576078353	0.25816361156197	0.245234404765179	0.253975538558234	0.258645812978977	0.253357532349957	0.244307273223761	0.249648057471425	0.254113866001704	0.254894103724536	0.24667612604363	0.239167991580255	0.246217469218126	0.251371330381328	0.254987288473904	0.246043900366136	0.248988850444659	0.253451385895572	0.25333678335808	0.251755646993256	0.252209371784747	0.261574435673158	0.269120945325544	0.275296503303374	0.270149095367023	0.273622389634718	0.263595777935758	0.264524319702903	0.264323530359807	0.257478892805239	0.257539264490164	0.261809739213563	0.253508012245908	0.25244579542627	0.251601538624971	0.24050072927343	0.23503523300996	0.230035498960244	0.2328830334722	0.238041585157494	0.233872249348767	0.227945520094223	0.235388581226222	0.238947668075831	0.245557193168699	0.232035902409126	0.235809199516097	0.240364323213075	0.242252384380552	0.245904981645098	0.247178711954669	0.237222851842019	0.241424463532086	0.25230367516064	0.253299158317869	0.239982374079297	0.235944156161969	0.24860364123526	0.24432790523164	0.252203169280992	0.250560504826007	0.256135326076079	0.253965862893596	0.247917301172568	0.245100357377204	0.239766726535806	0.2435279175065	0.24431627473331	0.249839594227966	0.25453214719595	0.243465255643419	0.230879189715063	0.224933528858928	0.228749644551716	0.22453158414072	0.218187432680951	0.223503521589311	0.214848519665706	0.218197726440136	0.218171578872647	0.21646279469897	0.209032793837637	0.20647288081689	0.213658466677788	0.210764696078932	0.204773703364535	0.199467301702052	0.211229693733972	0.208586473992029	0.213520517116438	0.210916749871588	0.20769653673926	0.21237191409808	0.210528746155744	0.206910186414392	0.210605014305523	0.21842461436425	0.220208509791745	0.229532536745509	0.22802892036946	0.233714081834236	0.223159208834382	0.227553131274049	0.230304758902542	0.22616189794671	0.225519341665515	0.227551607190833	0.223470212090729	0.225083029792621	0.225056119586401	0.217658551442836	0.208379197230438	0.19800352665919	0.195418656629933
0.227406313938998	0.22750912458299	0.228859238175045	0.21864310651579	0.216985859852444	0.228352423753938	0.230127003510819	0.233474598926521	0.232817684922769	0.219655714898067	0.222294588356405	0.215693200091394	0.224260336110908	0.219220428787372	0.212820277639431	0.215442902966227	0.218303876734736	0.215247818531023	0.206677955171423	0.206882661001625	0.20279448171571	0.201073006060926	0.207468454975231	0.208389917397084	0.206291149076654	0.204461660579054	0.205488327420691	0.200773858045859	0.19633851995038	0.193881390548408	0.194984469430722	0.196746787583059	0.202168712550145	0.211160257455055	0.212370871881076	0.214329761104652	0.214208034543275	0.213838875848913	0.220142890700383	0.239431666795451	0.245399083642395	0.25015430388573	0.250783069057651	0.260914758590899	0.261226191702113	0.258142828210196	0.261335117228561	0.255350679039308	0.253173325878823	0.242206021437388	0.245778942150029	0.238355978387424	0.235020726097362	0.236282753613349	0.236083105949156	0.23234026716889	0.225041344649481	0.219017485208171	0.216643629958092	0.22241418691139	0.222182219568831	0.224376395807165	0.227361720265789	0.220235932450814	0.22242078413733	0.222017813438382	0.225691915417962	0.233156854383355	0.229953195660715	0.225690777580959	0.22783612694776	0.229538484578096	0.228613741014119	0.233823856586783	0.242299667822244	0.239142815991188	0.239149006923522	0.239426074911812	0.233218124820639	0.223461586913286	0.233712896800979	0.237026104277521	0.238121155056098	0.237188893070238	0.220636636498148	0.230192899129625	0.213203601647135	0.21656974582643	0.218792850161284	0.210964883991812	0.207442749755926	0.218677176362092	0.210284768876796	0.208490099586486	0.211246823266358	0.201524697540691	0.20216225278551	0.201783580392267	0.209665438634305	0.204651341179129	0.204037395134128	0.202955768158132	0.199504741779643	0.192474295843731	0.18584023100138	0.184164426036197	0.1924301427144	0.192935504673342	0.194878982710325	0.19585009323356	0.197457019112007	0.2013837464747	0.193589326709293	0.201453491843503	0.214142115598026	0.22182243980118	0.225345113088488	0.228291066593716	0.23265006072364	0.235776721240566	0.234597228200937	0.237270408440289	0.225029811131139	0.22197741107302	0.215957695993912	0.216372534937498	0.208985084910462	0.211079057232262	0.20371569455919	0.206728628506393	0.194364239418572	0.189732242639169	0.184559876448078	0.186462680542483	0.191433839992391	0.191868285398353	0.19344531247194	0.201039346319298	0.194932658485061	0.200040850230516	0.194562357451849	0.200949367354212	0.210301188239516	0.208828424154223	0.207043802680245	0.209408126282036	0.216286907443523	0.218223614103619	0.216479270227658	0.22364861352434	0.226734042748168	0.223111206375233	0.216086082942213	0.210181362188274	0.206442806106121	0.211716109018468	0.218298935081348	0.22369419433636	0.214646932730646	0.202484326995916	0.203882602186335	0.19626315826889	0.196695250529708	0.196304546148022	0.189571726815336	0.188483348534004	0.196524087166568	0.186075602851633	0.180626073010932	0.176117456036661	0.172160993508464	0.169976679111951	0.164267807657175	0.173085743441756	0.168079769577987	0.175293431724433	0.167849486244057	0.163288800174958	0.157119913934655	0.157557558684115	0.153366994775493	0.156829506656018	0.155301799501532	0.155065300729819	0.157489238707561	0.149372439567159	0.157843542099278	0.157114968623007	0.158014268197669	0.169411729900725	0.177428306315339	0.184111063212743	0.184287310595866	0.190128244034103	0.199206667302841
0.16632917207124	0.174770767540959	0.178295858250574	0.170562339476933	0.169929698792308	0.167392663966756	0.15836533132929	0.156996751331326	0.161858944151892	0.163371660154784	0.1632079585741	0.15774795141539	0.160498602306613	0.160063997530887	0.155120174742298	0.163786945808736	0.160804981517629	0.162033561942192	0.156342289906325	0.157964338506061	0.158902007928777	0.142601405076829	0.140133552899821	0.140687005031887	0.140150243776225	0.136825163191393	0.146094237645722	0.142703577695371	0.146958949000573	0.14797823127923	0.149253353054609	0.147796195021675	0.146999845104855	0.147055839106554	0.147201782684045	0.146997202223439	0.14842704921372	0.153582460569313	0.159208727224905	0.168129793376897	0.162676311515584	0.163786294322945	0.16230385879678	0.164874317653241	0.171538142857436	0.169251979507902	0.176040880526038	0.184799083893352	0.181367290894588	0.179642247425051	0.17583574816423	0.16393445479543	0.166838359817819	0.163408916454002	0.159219850984656	0.161489021534605	0.159648925544014	0.157376655066744	0.159511975257124	0.15368593283819	0.159783202616286	0.155797640740265	0.159069700922995	0.164398399576475	0.158334915580388	0.158029360204617	0.167821347911496	0.167885236214356	0.165491033154354	0.173152087077765	0.173668288005606	0.179565874996841	0.178631356067187	0.17790757730254	0.176250579122855	0.17491189845747	0.180168878343447	0.182186408946781	0.176113219260571	0.172605088326798	0.170285310895768	0.167339584456654	0.160654780661263	0.165006048557129	0.163683505233449	0.16765976279635	0.161850009054005	0.158879872806078	0.160207742493895	0.148885964514958	0.15952556412201	0.157693446121905	0.160378086190795	0.150991827254437	0.157900651435025	0.154805777784906	0.140661733290766	0.137075674854011	0.139577514942445	0.139545054104858	0.133977448219471	0.143425758727507	0.140010732343193	0.141878868004028	0.14399598874988	0.143929852113973	0.137909333310722	0.137996665991262	0.138459063970679	0.137591136665221	0.134365805698751	0.135955032610075	0.144133366194816	0.144037705334278	0.154079160998007	0.147949751246659	0.149440372638002	0.152407295899159	0.156145518114669	0.156798828067643	0.15351324483283	0.160333389984982	0.167549578691319	0.171394933997123	0.169099103510261	0.161410925550209	0.14647266900714	0.145618643383137	0.139756082590384	0.135032546229602	0.136234896954632	0.136982009115628	0.139914397085568	0.139084698285165	0.136754606392333	0.140882811589999	0.135648613140675	0.138510051865222	0.144154983824715	0.137768389231346	0.140824771986896	0.145316768619422	0.14766276763053	0.144779895012315	0.153316661019825	0.155618157086424	0.1537144553145	0.157107311508259	0.157821042865682	0.152319349351935	0.15728168471668	0.15817669543578	0.163241228740936	0.15496388130177	0.150545970833168	0.149452191378823	0.14804216164824	0.144190597622801	0.141172965032614	0.141375574747848	0.139481748970771	0.141360145187096	0.134754678544858	0.132292633532364	0.123243719932336	0.13314160677823	0.130920926640022	0.132828409507847	0.127336681838575	0.129876848277169	0.125483482037286	0.118503572491232	0.112257674986139	0.116576360418569	0.115549087082454	0.118229748282741	0.127205949900155	0.11992041629039	0.121959996931085	0.12220270209448	0.126148529982805	0.119891687110817	0.120646134986067	0.118035598924238	0.119507917066549	0.115643086296426	0.117841832578887	0.122651698510788	0.124970420024421	0.133398942712303	0.132078097408736	0.131287176023919	0.132022331337602	0.131928151508451	0.131725346598581
0.126106555109848	0.118066881254717	0.119991719493542	0.122003727370277	0.127752749134341	0.135866153577697	0.134485013007319	0.135818513060395	0.13966443803275	0.136034066158271	0.132100605294524	0.131540811117969	0.127998393699986	0.127122323648648	0.130701625403964	0.122188762049022	0.126278416271812	0.125769820093437	0.123604966277844	0.128881461821725	0.126639472520374	0.128451474661198	0.123270030775053	0.129335521612672	0.126157622980117	0.124846953067658	0.123516131404607	0.119690245923306	0.125016755686325	0.12326176850772	0.122335756306998	0.118658242130175	0.11879686102513	0.11222862828343	0.110353360384431	0.114995432016017	0.114555077446218	0.11306673692046	0.119769748612348	0.123469826756253	0.121120523234179	0.121641118631216	0.120959655319371	0.127706590364387	0.122399271767281	0.120942611357061	0.12576805988318	0.125683104912756	0.124309347881401	0.128460818592552	0.128237206504874	0.126055054399169	0.128437571867971	0.125414813092286	0.120128402277157	0.128814193730216	0.134238130847798	0.138367404947616	0.142102087738038	0.141319082504502	0.143571780423789	0.145703048100838	0.144589375753739	0.14463649072262	0.147386316079458	0.149409250476793	0.15205761027692	0.146080808820153	0.133840966678507	0.132804918144623	0.134940361731414	0.12928791305388	0.1331847676187	0.131664154529178	0.129072748831445	0.137014209379408	0.13095616746864	0.13454200139822	0.136277547653087	0.139998019710856	0.144746953136156	0.144384940154209	0.142533842963978	0.142198051660213	0.137990177304359	0.135867910003521	0.132542485447327	0.132627612832397	0.128540720074975	0.127950051640532	0.123729385738016	0.124255314421462	0.123220952611832	0.12607986649761	0.128448694703145	0.12614332009152	0.126812689822379	0.12497627262344	0.127248876281778	0.126125332714244	0.124040096803902	0.12076637387521	0.119488266575035	0.121802309334721	0.12036008231735	0.119480852099408	0.114545793360519	0.112894520514539	0.109414131960125	0.109983663884659	0.107982386871802	0.108594863406213	0.10551784473774	0.110594920658014	0.116276137204669	0.112618881486851	0.112179445862366	0.112212673809333	0.115816341941012	0.112130159526486	0.108181029543335	0.114858928956673	0.119012042305484	0.114742954016113	0.11793306835993	0.118131345018025	0.115352075846356	0.114794926207604	0.115380516471614	0.112011052215923	0.116537538587341	0.120879751365965	0.128448700286537	0.130809789690495	0.128554986916073	0.129732356469381	0.131812172167507	0.131452254738838	0.133424590425316	0.137333940844174	0.134057779218878	0.137923762959564	0.1318799784314	0.124501877632277	0.119434954293647	0.124171570930332	0.123356289517801	0.124687547596092	0.124351347345385	0.124315108290224	0.122582570803293	0.119425625303828	0.121262421808784	0.123054669152197	0.121820033753015	0.130727880109789	0.126864652638392	0.128193999068183	0.122693008625436	0.117532678973159	0.113609578155991	0.109466508629932	0.111983257404157	0.111438072249588	0.11334631799877	0.107798694455044	0.107263255606355	0.10029889318099	0.102406481220203	0.102071859100314	0.10470620232525	0.105270105617648	0.104972054916507	0.105586081439029	0.0973058313333805	0.0965067358725963	0.0952685689675668	0.0963129547067938	0.0978984779683975	0.0969934589787749	0.0979500207803673	0.0927201479927252	0.0915952851872991	0.0890341864748098	0.0874729837342796	0.0910837638728743	0.0927631521217853	0.0871865691177335	0.0932614522945911	0.0939156025541511	0.0885543004964323	0.0914189107760486	0.0904758089297806	0.093859764201133	0.0918955807829967
0.0965412399398598	0.0979420092048808	0.0986849221795444	0.0973508260965652	0.0998939343958529	0.0989497532083929	0.103883967194006	0.111865501520088	0.108614692676339	0.111106547389453	0.0977921914121666	0.101442457804234	0.103914577543539	0.103547595180103	0.103071344717811	0.0993487519721482	0.0977964513003859	0.095819923525729	0.0961166633939837	0.0936294116610232	0.0970534881945656	0.101702906823232	0.0994774526728904	0.0990928247448224	0.099690976210979	0.100460372071034	0.100975881093331	0.103480198772604	0.109154600495201	0.108432071547266	0.102579113637291	0.103170794143346	0.102916569381568	0.0958518572507213	0.0988672179786697	0.104696932219609	0.104875238504474	0.112673910488707	0.111469083612378	0.113808707851816	0.113441497476865	0.11454048175165	0.121011199586084	0.116362489609892	0.116935466232366	0.124362835808822	0.118389245376938	0.112962571051423	0.117768456123084	0.117919881878653	0.115039422538651	0.113110026808436	0.114148541816773	0.117545746247819	0.116581047539029	0.114488597204185	0.11892232131748	0.110272184423516	0.112306944491199	0.111983753651153	0.107085298911371	0.107927839973857	0.107874821149324	0.10615470020756	0.104049904356315	0.105498797679831	0.102948713085245	0.107292076150889	0.102867477362522	0.106416738791898	0.105885901080648	0.110917563692915	0.119296461710244	0.125090494892748	0.114157368854952	0.111964402317299	0.111386310915961	0.110981360086738	0.113828535244212	0.109588900447502	0.105656825745651	0.114195862153435	0.114604408051549	0.110117578488368	0.112284842539678	0.102053543681149	0.0998657932115158	0.103384542172741	0.101375153891432	0.101429692214154	0.10225556705232	0.0950312833856525	0.0963215390337425	0.0945516468037358	0.0938490360872557	0.0952342710365642	0.0996432721966012	0.0987413926793375	0.0978685278466066	0.0976679237385451	0.101547974491443	0.102651458386016	0.0999631509364898	0.106958643314872	0.105055169367651	0.100284484620856	0.100562703001273	0.100185924109805	0.0933154500573758	0.0910715586764696	0.100904725448642	0.0975730701468827	0.107374586865321	0.102853836274533	0.106069333807396	0.106449067914056	0.1078867963589	0.109840623761036	0.108697766592885	0.107435072108572	0.112191892890718	0.108913069602683	0.102823695599023	0.105751237914365	0.103732588800363	0.103965071374113	0.103903666214248	0.101718386653282	0.101487477210513	0.100591350080372	0.0978745755175524	0.101419837556742	0.09103870838316	0.093721516042816	0.0947215985298827	0.0929586698183277	0.0957138981272843	0.0918536457429234	0.0922520701474353	0.0899709751973285	0.0924514350110029	0.0872112561897875	0.100535413505985	0.09495639091776	0.0966870082700707	0.0986952620135838	0.100496805334818	0.104242409259209	0.113062886605881	0.108309829727789	0.0999128081842488	0.104809898560424	0.101830607799026	0.103278067940269	0.0993297479643342	0.100669392321849	0.101583509294722	0.104299759795048	0.0998313036463157	0.102197575420507	0.0908181229259844	0.090349329534368	0.0932904279995062	0.0912008585549592	0.0918584409684171	0.0901099369192342	0.0849819643139084	0.0844741073683848	0.0877923158400675	0.0859188559468055	0.0863448200966241	0.0914283816401844	0.0904756692716453	0.0926805350003617	0.0891879806218762	0.0909998376631052	0.0915191497831161	0.0901815083390858	0.0959992013563228	0.0937795606133242	0.0893789379650665	0.0908270713495178	0.0893037931212542	0.0805509440547229	0.0802734850665382	0.0872109342693776	0.0851053623195538	0.0887599227281876	0.0920573788537053	0.0953540400019459	0.0942425746416126	0.0926717470212769	0.0951665030298637	0.0963218952205577	0.0961916178090682
0.0725338402498056	0.0774166326482987	0.0772415860766431	0.0781740465830898	0.0734640100698908	0.0746340654224752	0.0761609405377774	0.0778181849686809	0.0800002838000503	0.0818766934942198	0.0806766238708894	0.0817131401517787	0.083391948942814	0.08119067162314	0.0791573033513557	0.076777209775261	0.0780432948579481	0.0804306821147373	0.0806400639015653	0.0776710681254262	0.0757727444930765	0.0764535371769961	0.0780817920723803	0.0817819829244301	0.0808885841779196	0.0832213088655339	0.0811823241206853	0.0831080859683454	0.0792738697528743	0.0783101724394347	0.0783185825991248	0.0814235421103169	0.0827249476226922	0.0783098483273317	0.076210691929889	0.0754293374410619	0.0674345390564819	0.0703116147259633	0.0682866384847662	0.0706589824243289	0.0743786315966104	0.0744294009367893	0.0726460935734774	0.0684960350518859	0.067484125940132	0.0722525693195318	0.0747712026732712	0.0748266080518066	0.0792698689277329	0.0836717748270201	0.0825795520350409	0.0817427656291372	0.0803948411932236	0.0823942279501688	0.0886770766444549	0.0889619741044652	0.0935855666835923	0.0952071914125581	0.0899453620037447	0.0939694303745069	0.0930692617046718	0.0908548307539957	0.096800778573129	0.0981120212600508	0.0924436097468061	0.0932094945647738	0.0918111795547854	0.0891350746930301	0.0854706841551474	0.0842291708439179	0.0853312606404222	0.0820228686197533	0.0812810610917892	0.0842375429252743	0.0781671887202832	0.0776936544619343	0.0814134106796083	0.0840677625235298	0.0813411799376333	0.0785047488769182	0.0784270746977517	0.0766360775055761	0.0799979141329962	0.0831081334459912	0.0837632659774161	0.0836787677158362	0.0803640876462272	0.0815495890024085	0.0789675470817364	0.0804441743268735	0.0773060462647489	0.0775478796882998	0.0794459371798652	0.0819726948769808	0.0760409143273935	0.0757757908677689	0.0775373645789	0.0783529248182489	0.0786084141623368	0.0817223356504673	0.0816278159639041	0.082016075593233	0.0800405366849557	0.0787208167129135	0.0768936544874287	0.0760855563997775	0.0822345513921479	0.0827817154709885	0.0773956583123388	0.0743206946901697	0.0736507193029996	0.0662459433806496	0.0658083076622186	0.0627469017558889	0.0624415455690126	0.0658461830631033	0.0648077969431257	0.0597801139586922	0.058177840891337	0.0555322631966701	0.0561051094230674	0.0616311442028059	0.063458386720311	0.0650173296558336	0.0694171478458938	0.069719200628136	0.0698969769027029	0.0696740787743436	0.0706217054414207	0.0799696752721016	0.0844672129651602	0.0870774083051302	0.08869568853295	0.0845894078383793	0.0877312987147063	0.0875344487785317	0.0873711949123582	0.0900439535918832	0.0908457802845121	0.0862352478516457	0.0849623219100291	0.0812313475214086	0.0779366159441502	0.0742014327018682	0.0720898992821714	0.0715354506345519	0.0677319665625226	0.0699157700151527	0.0686446406253787	0.0660709299065012	0.0642450693860783	0.070194420896188	0.0734572277914354	0.0697154131348741	0.0706731193101567	0.0672854028284132	0.0642630343457698	0.0686555480396438	0.0704767718136579	0.0689627537560768	0.0695524309891403	0.0660596627639035	0.0674621332949051	0.0638573458924821	0.0627490181570359	0.061640275205333	0.0615830258925532	0.0666035760128126	0.0670619791319041	0.0626326021421517	0.0595642897831139	0.0607868095875748	0.0596020176311798	0.0636993257998514	0.0681777201691035	0.067940116660911	0.0690210433982111	0.0656975803487407	0.065457036340474	0.0649699287401088	0.0648969935674495	0.067541749392612	0.0717166916653762	0.0688798843251299	0.0687870647631826	0.0657067268512863	0.0606083056022694	0.0591359327590461	0.0548771251632925	0.0555496697371262	0.0565534750038103	0.0565522116094562	0.0517925652103273	0.0514138116195257	0.0501117174313077
0.0578251537783813	0.0561470892394599	0.0528766680547622	0.0521450195024219	0.0542117534571912	0.0551935815354554	0.0574825419375546	0.0576213715793153	0.0600665505011621	0.0622880936930722	0.0597304561097927	0.0652410811897835	0.0648905491286664	0.0637435977989925	0.0635025416394986	0.0616519078291032	0.0609062524454273	0.0554594616641122	0.0531110687584208	0.0506652808577712	0.0541937844084084	0.0523441449006991	0.0527518978398007	0.0531373326298806	0.0503070999866754	0.0546304706243168	0.0542255548389269	0.0569878974880115	0.05423814396505	0.0579056032883937	0.0552927988252995	0.0584542862105941	0.0606631865692207	0.0552650720922008	0.0532397860827029	0.056825847706585	0.0589489820385013	0.0579388764236153	0.0613908769080951	0.0609377621240933	0.0639544786870837	0.0607902726827377	0.0639126163006292	0.0605372239845498	0.0591455975336776	0.0617439477023683	0.0657537541876596	0.0660501211180906	0.0671372748634103	0.0688831770990215	0.0686761740371864	0.0695878189396162	0.0700789821867041	0.0703377834913585	0.0719018584292467	0.0707020075868521	0.0726499557249052	0.0669949939014188	0.0664895614306866	0.0681227253149471	0.0644928496347874	0.0620085640207092	0.0601179309026615	0.0602593833264533	0.0570426446608576	0.0593859231208251	0.0607691868569953	0.0628421667458002	0.0641933744351681	0.0695620020100636	0.0658284543237798	0.0631514407812806	0.0624093146059759	0.0673423702310476	0.0622037359707429	0.0637588532307192	0.0618460670315088	0.0580819092164299	0.0582239258406801	0.0593036330963863	0.0618505501759919	0.0607799712343111	0.0636412385586217	0.0669727975238689	0.065201909697558	0.0628762649599165	0.0638744554413245	0.0666953517754935	0.0659245503919451	0.062520253705176	0.0611818481114992	0.0593412358551794	0.0553008577310392	0.0537317557763529	0.0492124822370174	0.0491620946991803	0.052439239095104	0.0520670501749409	0.052924268175265	0.0505873546045909	0.0521761191300181	0.0538770100318743	0.0569878974880115	0.0541778040328621	0.0541622122487906	0.0536252958802041	0.0537766148428633	0.0575293224965303	0.0511663512327965	0.0505440969416855	0.0541144987879577	0.0527815671914101	0.0527779593015042	0.0544794599281865	0.0525723654209882	0.0564092104505624	0.0565416726412992	0.0554028022671913	0.056866824361274	0.0522568623019697	0.0556532883070209	0.0584678065280336	0.0574733712363693	0.0577583807926399	0.061870646943074	0.0628431260683265	0.0596454537040391	0.0615616579252771	0.0586222444611534	0.0607845227441215	0.0607034481393767	0.0610832193634734	0.057688490103929	0.0584902587913115	0.0613483766005359	0.0576290904300134	0.0538429331436066	0.0529309228181013	0.0531895928890264	0.0516649268191677	0.0562848716824934	0.0545996466668605	0.0581008707309787	0.0598967795876901	0.0630884380442909	0.0618931562503907	0.0568498646178517	0.0573817649681819	0.0622718125148172	0.0580476720935896	0.0595462296994093	0.059673335153228	0.0533746605521953	0.0547332362671674	0.0520433351241867	0.0547509991176007	0.0553674393013478	0.0587600504715726	0.0573904473458958	0.0601913130156673	0.0562410902882521	0.0558656256920601	0.0570817376903077	0.0548148313786664	0.0545114239559117	0.053726743533108	0.0524713271704241	0.0478065266548745	0.0452313428983146	0.0386179643743964	0.0383407859856907	0.0418275537762758	0.0433196151523973	0.0421661860137063	0.0405958922277084	0.0413790643422525	0.0425904889882792	0.0459542027154704	0.0428183876816405	0.0427073877944478	0.044250789049113	0.0457395095822461	0.048322751069657	0.0435476246516665	0.0417542455316893	0.0439867337879854	0.0457155122920939	0.0456422950745454	0.0465108508325104	0.0450140863665402	0.0481513529859729	0.0500192704301494	0.0472444185736145	0.0477554682691091	0.04610491449931
0.0295622249782893	0.0331487055402657	0.0342225806309994	0.0386720935533238	0.0440815936149754	0.0458082317694933	0.0473773813259582	0.0459534912495101	0.0474750798057654	0.0461498602026038	0.047389004940426	0.0501354656750009	0.0510084335415096	0.0494579316198339	0.0470490390392122	0.0405453316349583	0.0359377004721474	0.0334074943445348	0.0348520018896686	0.0334737978424478	0.0330334578640078	0.03444422586702	0.0359807275062331	0.0356322792239253	0.039273246598492	0.0375524235783366	0.0368701551349419	0.0385107628712454	0.044069891735927	0.0416363619788278	0.04212491973706	0.0401540046293688	0.0448675793808987	0.0441473216593173	0.0411555775055966	0.0430829219368834	0.0403460905564062	0.042293828007967	0.0432196462081538	0.0447156089074027	0.0424362836021161	0.0445306429512786	0.0477234129290732	0.0516540645209408	0.0493347223905431	0.04590045523117	0.047161966730892	0.0439211149417699	0.0421362321780261	0.0456285056310895	0.0452839294429586	0.0447278480973567	0.0433184016809011	0.0421446091498382	0.0410177488587638	0.0379987790962604	0.0409855395340264	0.0441811848091576	0.0446906089719112	0.0472678689174607	0.0513486605314867	0.0491985702501587	0.0449335245582783	0.0439452573875274	0.0431736027317319	0.0464628166845317	0.0446260807909831	0.0419231075555435	0.0405469728949316	0.0356513166192196	0.0359741585265264	0.0362690613039761	0.0326858266637283	0.0307640471348212	0.0293700262124181	0.030327958176438	0.0350446129788579	0.0386475866327079	0.0352687341466046	0.0411653298001544	0.0435560838706191	0.0452585735519167	0.0452222261318099	0.0474330110189944	0.046676690164685	0.0481698335827703	0.0516366909164465	0.0519747876654119	0.0495370437447939	0.0470490390392122	0.0405453316349583	0.0375163876243675	0.0334074943445348	0.0321804895816645	0.0343937345135095	0.0305536179021784	0.0326747434270249	0.0348509049296573	0.0346402009207747	0.0385419814807918	0.0375524235783366	0.0351973164705958	0.0385107628712454	0.0424116145888081	0.0399132756022292	0.0424306422959191	0.0381864037941162	0.0413554370149376	0.040339274250475	0.0376251567393692	0.0381108137029085	0.0373546662202111	0.0344895755316371	0.0396628965654113	0.0386722648064615	0.03955225964465	0.0395892771583781	0.0411753055173656	0.0421769928201378	0.0413922019915731	0.0405447396968111	0.0407026537277449	0.0390547840115996	0.0383564922721635	0.0396052295803758	0.0402790046537957	0.0394620449759579	0.0380017719674361	0.0370989726315422	0.0342391925245405	0.0347874296706411	0.0356218955430575	0.0362846932174677	0.0365427272176859	0.0391697106275226	0.0412896340441442	0.040689756856446	0.0364877044882775	0.035344411577238	0.0361130221869714	0.0386510330417844	0.0400598819405899	0.0373569087051503	0.0374429703910413	0.0344885756577704	0.0348774051024572	0.0337590826307847	0.0310077846692752	0.0282903059047518	0.0274969498384119	0.0276245232589771	0.0307750122409774	0.0319870918762664	0.0331359042656615	0.0366486963246122	0.040505126702281	0.0420495986808001	0.0443251345257381	0.0428771738581236	0.0407963136333384	0.0416986212233087	0.0434944807311198	0.0436826009327688	0.0403912173914448	0.0401949896407154	0.034332658821658	0.0284360631681082	0.027950462152858	0.0266324164443144	0.026522365173574	0.0253283754691481	0.0271388273164384	0.0294019777214937	0.0320891809648897	0.0354677360138692	0.0341287052398518	0.031773598132111	0.0353732480421803	0.0369424671508347	0.0353343894588317	0.0363018352138067	0.0343596281867864	0.0364721576141682	0.0349196903371457	0.0329657119011199	0.0336694365187005	0.0321011930656162	0.0304995230378085	0.0330933944892059	0.0334283931897935	0.0342122473283647	0.0361850314374646	0.0394456648900346	0.0388553743808466	0.0380705835522819
0.0422499573387199	0.0454236979443114	0.0461038264444923	0.0446829989350816	0.0421286799111509	0.0405204988507355	0.0395433783753493	0.0415677368912411	0.0388517672794672	0.0375739920137969	0.0410019562950165	0.0397649184644023	0.0381395083005006	0.0344742254823747	0.0355320066011177	0.0355896457188531	0.0358516602570311	0.0390212258011311	0.0366866035710122	0.0336390484421909	0.0315396899623933	0.0320130089010073	0.031605051919175	0.0304163115068996	0.0304570719693115	0.0324326649727696	0.0284469190711293	0.029901357561609	0.0287094131704507	0.0297514686325852	0.0317285934123156	0.0361974574642517	0.0386645471376412	0.0371161825703923	0.0376637168663351	0.0379073773926411	0.0374086274975191	0.035349856332159	0.0382313406482843	0.0388183728412898	0.0356146080531623	0.0332966922212291	0.0326288380866137	0.0329692133833347	0.0316262470569239	0.0304496192114616	0.0299514737215285	0.0292373217200976	0.0282868379071423	0.0302042752627216	0.0286532791046286	0.0300154671501318	0.0309397213261508	0.0333175914645522	0.0310160849429396	0.0293588455217297	0.0304714713852339	0.0312370625661277	0.0311982223955921	0.0326832690635238	0.0327870842702677	0.0348299386873627	0.0331964514390837	0.0358140143248632	0.0345112210153598	0.0353508612971689	0.0385339896542262	0.041925777566879	0.0423932810499453	0.0423574576495633	0.0438789238832961	0.046382058104693	0.0453866203411696	0.0451963394815829	0.0443200702827436	0.0429568968637364	0.0464770951899032	0.0457803585536179	0.0456388397951103	0.0429095085534952	0.0397279153267502	0.0403091990066914	0.0393011479571096	0.0388517672794672	0.0391955184260731	0.0397738631862457	0.0404847253645193	0.0368142886973389	0.0347583750920974	0.0355320066011177	0.0329952961290056	0.0373267883147753	0.0384768348403138	0.0366866035710122	0.0336390484421909	0.0319722432103811	0.0319634453763631	0.0303914824887311	0.0306465140636148	0.0314765182332131	0.0317912883875731	0.0269169796484953	0.029131766735989	0.0252186747972991	0.0266978484480267	0.0293504489038639	0.0330387362308309	0.0353976202057881	0.0341236226984566	0.035504908466947	0.0339854524165861	0.034320311264793	0.0321542643857975	0.0340117851175394	0.0345216256904922	0.034325515577601	0.0307655583044081	0.029762101706649	0.0299992758968066	0.0275738657367886	0.0280020222272478	0.0257093075547761	0.0261947656035278	0.0235584323978237	0.0246294781712386	0.0255255973037207	0.0279148082160826	0.0296339266544655	0.0304219712640504	0.0301228026874754	0.0273271215090103	0.0290183712824941	0.0282694302792771	0.0297057181664856	0.0284002055496272	0.0319220299521175	0.031441313220632	0.0317592045153943	0.0323872082435396	0.0310665381169509	0.0325764289413362	0.0318502082690029	0.0349912674189873	0.0346743285076415	0.0356207930415821	0.0356789427333363	0.0385555921301753	0.0383409830089962	0.0368483931815218	0.0387665563320682	0.0382745188850808	0.0385321527845411	0.0386919958762989	0.0394302786972664	0.0380049539513726	0.0350000562480671	0.0349905315143506	0.0351999868515321	0.0366189538312816	0.0332907194294421	0.0342494900370153	0.0332573972495918	0.031896736619663	0.0298456193233466	0.0299658208832909	0.026509173740117	0.0294809639972763	0.0326379583994845	0.0298971259034191	0.0281551054573895	0.0246632233923772	0.0248175844345536	0.0251553172633583	0.0239661469251203	0.0233940269033304	0.0241349024794329	0.0207041037482034	0.0222340431708373	0.0198997079466575	0.0225440918602459	0.0241467264404951	0.0258285927849592	0.0280375002125999	0.028226819247247	0.0282797420774503	0.0265451722719881	0.0273346377893503	0.0259807364507188	0.0288250354673163	0.0281566392329816	0.0281260087986498	0.0268001712698671	0.0247700808553155	0.0257364485928028	0.0225302097904404
0.0230006293350525	0.0263305409210143	0.0271503113553638	0.0253531468935599	0.0266958144425803	0.0274105627586466	0.0284562854063874	0.0301081309594153	0.029869640544094	0.0324544664821088	0.0298336026676897	0.0293973585431614	0.028755981957965	0.0266162247338072	0.0251831597840155	0.0267385994170315	0.0269312219090309	0.0252796028028348	0.0248529154683455	0.0251864331313354	0.0256048231270571	0.023550512223472	0.0252673371250719	0.0233386602381146	0.0248999734943728	0.0271741318529026	0.026818297558666	0.0254159779930813	0.0224625689640456	0.0229825687016697	0.0224653928841132	0.02066480528275	0.0215601100345168	0.0229963508591362	0.0222761455569723	0.0244413031595016	0.0252601113308691	0.0246989762975836	0.024365789704841	0.0254216788836968	0.0252384127596343	0.025365255193035	0.0261044880426524	0.0283110807230988	0.026668681188339	0.0247474137659049	0.0230219839517638	0.0218039094039681	0.0228854510971394	0.0237486635039456	0.0230939210441338	0.0238168962388789	0.0248074230999414	0.0256405641780347	0.0267324408839581	0.0279996167274842	0.0296909035950698	0.0308928810966257	0.0327254346535656	0.0322689811581013	0.0316637915925937	0.0298785891108356	0.0295479628339353	0.0287586264245105	0.0270160295904672	0.0247215178365939	0.0276463507172675	0.0236100448671172	0.0222405932581464	0.0209616569731877	0.0198692555500743	0.0201294170678115	0.0195122663720684	0.0227023758488646	0.0240770708754873	0.0259047612174351	0.026426054856393	0.0276498571716147	0.0271929736180872	0.0263968549295884	0.0285738112900171	0.0288571710928594	0.0304098363024866	0.0309640857700583	0.0313989046507635	0.0308909486323846	0.0296990638862327	0.029376668975897	0.0253085661293816	0.0261010940653597	0.0255566459905845	0.0269312219090309	0.0252796028028348	0.0243908444712747	0.0258900320404011	0.0251273497634173	0.023550512223472	0.0246259605398755	0.0227573716677308	0.0242585969091764	0.0255045796073216	0.0259845460861184	0.0248618014477533	0.0230832559819776	0.0225204977045989	0.0220033218870424	0.0187900620618446	0.0199357180089465	0.0210313600885698	0.0211933875419695	0.0229642012969641	0.0223829127265803	0.0226011874171141	0.0234512251684813	0.0232515133338528	0.0232776128299375	0.0240078536044933	0.0238855432658114	0.0254293801415549	0.0231863157507318	0.0202161831006487	0.0184907532865076	0.0176028619393189	0.0181218663063124	0.0178415006671389	0.0168291110118612	0.0170559100951081	0.0182117688432646	0.0203545489113176	0.0213937237382386	0.0233763572654701	0.0248614527253631	0.027112295454568	0.0275628413433753	0.0280212148745689	0.0283359619801231	0.0279657995412965	0.0266791114531666	0.0275383816625272	0.0257816891655416	0.0224829598873828	0.0245856464581461	0.0238321084140402	0.0212709625697619	0.0203107839300768	0.0186370939365796	0.0180165386251119	0.0196367590560862	0.0225031897442256	0.0226775179551831	0.0229853157432352	0.0247275424230968	0.0259247518178901	0.0230861567204344	0.0238021317919802	0.0258284202503809	0.0249372283520896	0.0258310735182685	0.0252497849478847	0.0267227254398502	0.0262603148625285	0.0247111224874791	0.0237680405592114	0.020320624730628	0.0218658059542601	0.0218169573534365	0.0246666613296271	0.0221812907508832	0.0222100088571599	0.0218423953349795	0.0228902402540565	0.0226654493313512	0.0215356876468077	0.0196670987746629	0.0202483873450467	0.0202690769123111	0.0199682147487635	0.0182448052543352	0.0164462376266908	0.0171890140321038	0.0162987527375279	0.015247815053082	0.0166396253370787	0.0180645899151496	0.0168016527904785	0.017864790625118	0.0172835020547342	0.0193477568940808	0.0191326431389796	0.0190483031494927	0.0188801915414172	0.0192451271186929	0.0194218226421325	0.0213414691695558	0.0191479683033769
0.0186358476191508	0.0174271091378108	0.0184805369438424	0.0194529337574902	0.0201156895621932	0.0176700850858919	0.0159920430914389	0.0152792635382771	0.0139928244312253	0.0149127717042208	0.0159734363091951	0.0155100183148602	0.0149312770742102	0.015833981976959	0.0172562179298525	0.0165734175547173	0.0166183376703694	0.0187328525385508	0.0193896707024335	0.0208846628900146	0.0200472569102611	0.0207991954162274	0.0189217813803732	0.0207016020435291	0.0187136164160125	0.0182361430523727	0.0169590072737911	0.0169601981585202	0.017335280253168	0.0184266880976755	0.0187253589959305	0.0188346098096964	0.0199663202094607	0.0222533970878726	0.0232447209991011	0.0241174312988328	0.0237963924107868	0.0267835950369292	0.0262573633929308	0.0255546972206183	0.0270865870177659	0.0244552587172628	0.0256101001186541	0.0259846615416389	0.0259846615416389	0.0220543663564805	0.021319184167134	0.020392207260847	0.0225232286854665	0.0211528379106334	0.021066516413606	0.0190538444581401	0.0192533845301006	0.0224074325591316	0.0207427557105649	0.0210116588530474	0.0221927193088655	0.0219796566706323	0.0214630574255666	0.0203944025597127	0.0197333806224727	0.0200934307568617	0.0192182579389519	0.0195274825805193	0.0183841041748191	0.0167813222286152	0.0164514080197834	0.0157004006206019	0.0154463621231726	0.016052042299604	0.0173597195446638	0.0171660669176737	0.0167905106054955	0.0157530505302388	0.0180755005334067	0.0177455863245749	0.0178598499259103	0.0195643643457463	0.0194529337574902	0.0201156895621932	0.0176700850858919	0.0159920430914389	0.0129518057473962	0.0139928244312253	0.0161201852262787	0.0155546549013568	0.01477875319716	0.0144538037105704	0.0143427211227055	0.0158891157777545	0.0172810934750724	0.0166183376703694	0.0182060225764696	0.0189974716732405	0.0208846628900146	0.0198892392074826	0.0201985305601641	0.0189217813803732	0.0199939261231741	0.0179579757943889	0.0186982140494434	0.0171229104953478	0.0160699368639443	0.0167142130792215	0.0175364268030996	0.0167449777063287	0.0174175185530392	0.0165017363070033	0.0188384785345515	0.0194067171767501	0.0209208040616782	0.0221038211057062	0.0220455404068719	0.0234265947334111	0.0224145798054919	0.0239464696026395	0.020805305854961	0.0228621817327207	0.0215858924918711	0.0228269831277765	0.019059460188945	0.0194124550423877	0.0176094175951363	0.0191944818290128	0.0178950910481349	0.0197588548056394	0.017104806264977	0.0155729164678294	0.0177763632700966	0.0184442953164263	0.0193471316165531	0.0181060409806477	0.0195301105397933	0.0195444916916431	0.0186629726906045	0.0180019507533646	0.0179824534401474	0.0171379451779396	0.0181477703815052	0.018004556727213	0.0158011099249458	0.0160718605721773	0.0142906005374046	0.0151983558135875	0.0159132521225152	0.0158150941183084	0.0166474008394164	0.016529328001775	0.0147614940883853	0.0153113881495534	0.016244194435546	0.0159257172487819	0.0176419008595164	0.0186142976731643	0.0186142976731643	0.016168693196863	0.01449065120241	0.0127260699368848	0.0130358235030137	0.0134113798151919	0.0150448194541814	0.0159469597444376	0.0144538037105704	0.0140410157796342	0.0150822595139986	0.0148762999963856	0.0149212201120376	0.0165089050181378	0.0182509553416725	0.0191875453316828	0.0169096510654461	0.017759281457881	0.0160637508702518	0.0162456343184767	0.0138542285236712	0.014132395781655	0.0138694905680492	0.0142839941694904	0.0155241458820429	0.0151297970907137	0.0143383479939428	0.0135412767721945	0.0127604481298502	0.0148376371845735	0.0165363982918795	0.0165771100210127	0.016779648252397	0.0186779888501588	0.019693184599063	0.0184263412308468	0.0187562554396786	0.0156150916920001	0.0174953588642335	0.0167974378984007	0.0180385285343061
0.00835173314604369	0.007517981673496	0.007517981673496	0.0102441914845479	0.0120364558943527	0.0138894610035235	0.014239396757514	0.0157233782201043	0.0148737343207498	0.0154181252815671	0.0154117216086732	0.0154117216086732	0.0144470454300764	0.0164433543459999	0.0185669611374276	0.0178592852170726	0.0149802582029864	0.0151991962411249	0.0132901397332224	0.0105515910147121	0.0119487870749188	0.0118096684442676	0.0138249708454036	0.0145806114670271	0.0145806114670271	0.0158661239879501	0.0132440347272606	0.0143349687416805	0.0143349687416805	0.013586841393186	0.0141882444884542	0.0168198127906442	0.0161495331820682	0.0187571663236719	0.0177952289481946	0.0171212536778802	0.0179020823202245	0.0188519989258806	0.0185433069824669	0.0164479356638131	0.0179708286287738	0.0174609931815984	0.0173465036972991	0.0158125466131021	0.0173243942221615	0.0146634948193803	0.0158185405631627	0.0165905174099961	0.0163629952944905	0.0153288958800379	0.0170731888972822	0.0169726745070645	0.0165903009671678	0.0165903009671678	0.0165903009671678	0.0131281254906078	0.012152121908099	0.0123665986600844	0.0110371364830229	0.0100070145400745	0.012289505784261	0.0118943007007183	0.0127516284539105	0.012135290102048	0.0121621853108399	0.0113813566684955	0.0113813566684955	0.012978615734796	0.0141790643646047	0.0141482247109911	0.0148795425895692	0.0149665314919922	0.0133237625215544	0.0118030580244555	0.0095816386271257	0.0105463148057225	0.00971256333317485	0.0104202392535299	0.0104202392535299	0.0129048133039754	0.0144486004621036	0.0157423223991221	0.0164546433378045	0.014984312420518	0.0161493903992673	0.0161429867263735	0.0161429867263735	0.0151783105477766	0.0144470454300764	0.0179462741194956	0.0183064506981088	0.0149802582029864	0.0147939239109588	0.0132901397332224	0.0105515910147121	0.0112860312702158	0.0121651239102879	0.0134202353770767	0.0145806114670271	0.0145806114670271	0.0152654591318869	0.0130296511032339	0.0132861035140316	0.0132861035140316	0.0118752203608341	0.0116524735214814	0.0161003397618347	0.0155334087425189	0.0169526604743994	0.015990723098922	0.0146753712434112	0.016097576470952	0.0170474930766081	0.0164468282205448	0.0164991513059454	0.0172151880071502	0.0167053525599748	0.0161385777327565	0.0156381945618623	0.0165687536005379	0.0139786471545206	0.0150628999415392	0.0165905174099961	0.0158531598473151	0.0157476772878762	0.0164104330925792	0.0169726745070645	0.0158094723248234	0.0165903009671678	0.0165903009671678	0.0131281254906078	0.012152121908099	0.0118222076992671	0.0106816810170026	0.00962125119145065	0.0102835492830635	0.0120067743591119	0.0119634321997906	0.0106158287302279	0.0106427239390198	0.00986189529667542	0.00986189529667542	0.0102414427442816	0.010682999811603	0.0120705254719876	0.0118701236718351	0.0133404545891216	0.0115461433516128	0.0106097219096845	0.0083883025123547	0.00935297869095153	0.00925049233610407	0.00925049233610407	0.00995816825645912	0.0123779833418941	0.0123071903851303	0.013641624051282	0.0151469847333789	0.0136766538160924	0.0142973408340245	0.0135832612407755	0.0135832612407755	0.0126185850621787	0.0125286965296749	0.0153865486338977	0.0152995597314746	0.0143488783397461	0.0127862164081629	0.0112824322304265	0.00905371895909156	0.00945899128925767	0.0100454510368459	0.0110636623075692	0.0129796790191432	0.0129796790191432	0.0136645266840029	0.010765962850647	0.0116851710661477	0.0117478410322868	0.0105827630535375	0.0113106174409487	0.0141230347896784	0.0156041037001469	0.0156717435208154	0.0147098061453381	0.0135746180761084	0.0146487354494044	0.014275649972385	0.0136749851163217	0.0130277276516019	0.0143971212415356	0.0138872857943602	0.0125396823247975	0.0129701043435641	0.0134616910098317
0.0145251796632978	0.014121759496009	0.0131120566887949	0.0135371781775536	0.0138653180059226	0.0151076764914275	0.0146028619207446	0.0129272214932299	0.0130261000123033	0.0119827404448488	0.00955559886297104	0.00938460319512631	0.0087639161771943	0.00959436163829529	0.0107775859824052	0.0106143010228674	0.0104450148026709	0.00708301804908524	0.0072683004901484	0.00815856178472432	0.00858280149606464	0.00833852596557979	0.00902337363043952	0.00975463874813974	0.0106137261372846	0.00988246101958437	0.0092737952258371	0.0105818962442055	0.0104377957851526	0.0124037737114918	0.0126312792013648	0.0122508533539642	0.0117941632796206	0.0110495378509534	0.0123677157987549	0.0145359740134837	0.0146912296405843	0.0145884583720189	0.0152251406105341	0.0150763131078249	0.0150513721175933	0.013857054715162	0.0138551735420682	0.0133453380948928	0.0136816427704396	0.0143664904352993	0.0153241333174234	0.0143505582147296	0.014584593794533	0.014584593794533	0.0122152773155852	0.0122152773155852	0.0122517938686786	0.0132529317234151	0.0118747892900501	0.0115308001293853	0.012389900148501	0.012890820029655	0.0135763151968039	0.0142105773695241	0.0124006550523087	0.0119580078990239	0.014507063477569	0.015127750495501	0.0144654568520525	0.0138733569484669	0.0135933740538854	0.0158341850154683	0.0149795214791419	0.0169998189221677	0.0144323948291098	0.0152363101441837	0.0167944541628946	0.0179160610619805	0.0166479224370194	0.0162007569559832	0.0157973367886944	0.0154953099018353	0.0152127554702389	0.0148096301809077	0.0167832537841128	0.01627843921343	0.0142453994410313	0.0132549106718457	0.0127383810664723	0.00955559886297104	0.00872184739042335	0.00949518129489452	0.00878750537453947	0.0107012899252904	0.0114211572866232	0.0104450148026709	0.00708301804908524	0.0072683004901484	0.00815856178472432	0.00840328493059025	0.00833852596557979	0.00833852596557979	0.00902337363043952	0.00953904842447301	0.00988246101958437	0.00980062518791834	0.00912893635159684	0.0100499751127051	0.0128612942179681	0.0127083738604406	0.0118181125658647	0.011361422491521	0.0106167970628539	0.0119349750106553	0.0123282655654986	0.0133263865602374	0.0127785388095071	0.0139096541286286	0.0128894350241196	0.0142067539536728	0.0126849485096257	0.0126284386875975	0.0124625924010869	0.0134837447414934	0.0152151746106016	0.0144413876236174	0.0144356221772676	0.0140332855369112	0.0141071204308932	0.0122152773155852	0.012900124980445	0.0132329095615463	0.0126903943972372	0.0118747892900501	0.0115308001293853	0.0109463157014537	0.0117310801050528	0.0121106388895998	0.0122856511072841	0.011337271978368	0.0108946248250832	0.0130165370844608	0.013463702565497	0.0132485744030848	0.0119293261238814	0.0118139542787398	0.0122192266089059	0.0130069349032232	0.0123441790985202	0.0117792256619397	0.0125639900655387	0.012745806444694	0.0146023643981391	0.0131011391566936	0.0120332866577253	0.0116298664904365	0.0111827010094003	0.0116078224981589	0.0116733774791548	0.0125031751857983	0.0125031751857983	0.00990759808722176	0.00947964664421393	0.0089631170388406	0.00642171142053573	0.00642171142053573	0.00708446722523869	0.00710805642258386	0.00847745001251754	0.00893485207091178	0.0093862528686473	0.00660554468544544	0.00660554468544544	0.00749580598002136	0.00683728767635888	0.00705508314294481	0.00705508314294481	0.00773993080780454	0.00825560560183803	0.00935974599313581	0.00848374154562992	0.00784549352896186	0.00931715837569923	0.0106875901007572	0.0115778513953332	0.0120462701563807	0.011361422491521	0.0111793343890317	0.0124124483742951	0.0117276007094353	0.0127257217041742	0.0121778739534438	0.0133089892725654	0.0122887701680563	0.0130054242415463	0.0115398926927452	0.0120277738315342	0.0125696034653787	0.0121982322205704
0.00599743798259099	0.00540456411254667	0.00709278096992559	0.00679476166738668	0.00799437171756933	0.00799437171756933	0.00857469740290942	0.00928237332326447	0.00994512912796744	0.0106704247821595	0.00983667330961177	0.00902981704585594	0.0111704324309801	0.0105290558457837	0.00884083898840477	0.0080851983667812	0.00857679817272154	0.00956569913187355	0.00898441056148977	0.00747084126242258	0.00885497622361612	0.00853880079327776	0.00819712144687477	0.00819712144687477	0.00592496492372958	0.00624711918449788	0.00624711918449788	0.00674050832692567	0.00584045311250374	0.00552921347408923	0.00623222045576775	0.00759433766849589	0.00735402860386399	0.00685769883425764	0.0063308688721764	0.0063308688721764	0.00634786338708225	0.00602570912631395	0.00602570912631395	0.00799405075406477	0.00750066161163697	0.00649391664626919	0.00637114191982899	0.00559031327748464	0.00442773613671707	0.00560775651178046	0.00598730395938659	0.00743407059252961	0.00759762572071706	0.00788018015231344	0.00960772721818317	0.00800668957198668	0.00848416293562648	0.00888943526579259	0.00958456553099803	0.0107311102720811	0.0117133982064037	0.0103743816544647	0.00997124500951336	0.0103337789221564	0.0101425232179046	0.0114864285306778	0.0115511874956883	0.0112558342209472	0.0111223500179722	0.0112439076498873	0.0111894490415848	0.0099404192775334	0.00790447141904828	0.00871132768280411	0.00800365176244906	0.00672118117874426	0.00817561966922396	0.00552320057675622	0.00633005684051205	0.00599743798259099	0.00598585268293045	0.00709278096992559	0.00679476166738668	0.00799437171756933	0.00857566028795312	0.00847647994455234	0.00928237332326447	0.00928237332326447	0.00980191547367523	0.00983667330961177	0.00902981704585594	0.0111704324309801	0.0105290558457837	0.00884083898840477	0.0080851983667812	0.0081296326916853	0.00910362813480277	0.00898441056148977	0.00798067670959797	0.00829243889743826	0.00853880079327776	0.00819712144687477	0.00819712144687477	0.00624711918449788	0.00624711918449788	0.00624711918449788	0.00624711918449788	0.00549646395183892	0.00607360443490651	0.0070130490981121	0.0070130490981121	0.00735402860386399	0.00685769883425764	0.0063308688721764	0.0063308688721764	0.00634786338708225	0.00602570912631395	0.00602570912631395	0.00799405075406477	0.00750066161163697	0.00649391664626919	0.00570838611512602	0.00559031327748464	0.00442773613671707	0.00487649139408023	0.00598730395938659	0.00690724063044838	0.00788018015231344	0.00788018015231344	0.00834225114938422	0.00848416293562648	0.00888943526579259	0.00947072383617637	0.00909117638857023	0.00967745034791863	0.0117133982064037	0.0103743816544647	0.0104980749715946	0.0103337789221564	0.00911656386980646	0.011142439370013	0.0106803683729422	0.00957441828467018	0.0103311953762711	0.0104527530081863	0.0103982943998837	0.00914926463583234	0.00711331677734723	0.00792017304110306	0.007212497120748	0.0059300265370432	0.0059300265370432	0.00445534807778797	0.00526220434154379	0.00537675096465898	0.00478387709461465	0.00536516566499844	0.00548592777029783	0.00626675641264218	0.00626675641264218	0.00604118871927014	0.00755475801833732	0.00755475801833732	0.00821751382304029	0.00825227165897683	0.00781271937677532	0.00896534376241315	0.00832396717721673	0.00774267860683295	0.00764979378991235	0.00645018373972969	0.00689734922076593	0.00677813164745293	0.00557632453622603	0.00691021372140583	0.00680999524288072	0.00594148593439649	0.00645132138157188	0.00429001642918332	0.00461217068995162	0.00461217068995162	0.00461217068995162	0.00444280402767645	0.00562307052994001	0.00570539049368651	0.00648621913603086	0.00624591007139897	0.0048593190072167	0.0048593190072167	0.0048593190072167	0.00434948356004131	0.00402732929927301	0.0053108232621641	0.00599567092702383	0.00550228178459603	0.00487508426683438	0.00371000628808508	0.0035919334504437	0.00301064488005992
0.00738635389537341	0.00652481070707414	0.00652481070707414	0.00666274438348162	0.00728343140141364	0.00477650677523589	0.00497458003457099	0.0046826071219214	0.0046826071219214	0.00573636768082141	0.00598068661839939	0.00675894267885496	0.00677831896453442	0.00810194472508754	0.00864633568590482	0.0086973375042943	0.00857003962879008	0.00996406055119326	0.0109349230572609	0.0108303599402516	0.0112491413480899	0.0105141384344634	0.00976807197304018	0.00809955461800868	0.00749888976194544	0.00612256212238986	0.00709567695937926	0.0071926625837584	0.0066992734413306	0.00584964347974469	0.00614527323432436	0.00640275670886122	0.00598397530102292	0.00598397530102292	0.005142356856346	0.005142356856346	0.00668207286555226	0.00738974878590732	0.0075441287670624	0.00523086640290422	0.005812154973288	0.005812154973288	0.00473253686952368	0.00473253686952368	0.00527175665313651	0.00634587402643251	0.00707713914413274	0.00707713914413274	0.00620017893962944	0.00748718975399281	0.00831194203117353	0.00946916571442214	0.0105558862981427	0.0104679868701867	0.0110686517262499	0.0116499402966337	0.0120661492298518	0.0117969404077525	0.0122596457614372	0.0125818000222055	0.0119190442175025	0.0115686233931494	0.010817023837958	0.00983590389804405	0.00986451825668321	0.00863986399655519	0.00826405434487527	0.00805637023975191	0.0094268242048177	0.008716583115729	0.00717320897179728	0.00731312570809976	0.00731312570809976	0.00733127207346033	0.00836064139675369	0.00894192996713747	0.0080422592489528	0.0080422592489528	0.0088008799432923	0.0088008799432923	0.00596106258098732	0.00564930039314703	0.00560254379298318	0.00560254379298318	0.00668233197329468	0.00794845362656065	0.00767887934991675	0.00739900598246644	0.00759210927791215	0.00810194472508754	0.00919072664672209	0.0093013047464903	0.00996406055119326	0.011340195387427	0.0112491413480899	0.0112491413480899	0.0105141384344634	0.00976807197304018	0.00809955461800868	0.00749888976194544	0.00612256212238986	0.00715394968724847	0.0071926625837584	0.0066992734413306	0.00530525251892741	0.00614527323432436	0.00574000090415826	0.00598397530102292	0.00598397530102292	0.005142356856346	0.005142356856346	0.00668207286555226	0.00668207286555226	0.00703429331988701	0.00523086640290422	0.00523086640290422	0.005812154973288	0.00473253686952368	0.00473253686952368	0.00508381042330408	0.00643576255893632	0.00707713914413274	0.00707713914413274	0.00663291972772903	0.00775774652950277	0.00791974300198053	0.00899169235078234	0.00982462118044246	0.0104679868701867	0.0104679868701867	0.0116499402966337	0.012419898950823	0.0120669478318128	0.0120198177383221	0.0123419719990904	0.0116792161943875	0.0113287953700344	0.010577195814843	0.00899541101886576	0.00876314704526888	0.00789394825116117	0.00716268313346095	0.00598072970701392	0.00801369080556309	0.00759042079274008	0.0060196928708484	0.0056975386100801	0.00615960960715088	0.00706801726708738	0.00628718862474303	0.00778841386618859	0.00775028633630321	0.00824367547873101	0.00788822001271069	0.00850890703064271	0.00566908966833772	0.00535732748049743	0.00560254379298318	0.00595799925900349	0.00549592826193271	0.00714176285978706	0.00729933190231061	0.00715441213855185	0.00721256183030602	0.00772239727748141	0.00777339909587089	0.00830885702506963	0.00904012214276985	0.0100109846488375	0.00990642153182817	0.0103252029396665	0.00996974747364617	0.00876161001515212	0.00709309266012063	0.00649242780405738	0.0051161001645018	0.00460626471732641	0.00637513612066731	0.00588174697823951	0.00575421831648359	0.00532774677123327	0.00492247444106717	0.00516644883793183	0.00516644883793183	0.00478690139032569	0.00478690139032569	0.00540758840825771	0.00540758840825771	0.00611526432861276	0.00431183741162998	0.00431183741162998	0.00562439109971399	0.00381350787824943	0.00439479644863322	0.00373204064393025
