1.25086272244001	1.24490727516528	1.24762655986593	1.26810980789532	1.28003480219034	1.2873138099405	1.29593508045867	1.31446608208241	1.31032723700518	1.31015789034812	1.34124539731163	1.33491574367788	1.34365725151207	1.32414262128638	1.31799298893148	1.31827420232149	1.27423669694873	1.25647974803826	1.23647240828444	1.23343721132656	1.22173345170274	1.23294735523274	1.2074858412941	1.18351932121727	1.16303882272194	1.17859428446363	1.17504239368558	1.17658829259405	1.19779423409711	1.21843422059115	1.21978417717808	1.22221450410138	1.2421563947589	1.23344158634209	1.23804159757385	1.27038569291233	1.27572548311032	1.28287079010094	1.27092159088483	1.26364390965943	1.26438694193887	1.22318193333368	1.20816886658799	1.18269047386371	1.17514598847872	1.16452799287331	1.17130230597446	1.15387392201757	1.13078384939568	1.10728435569791	1.1175986977644	1.11598969038375	1.10964794425567	1.12075641781919	1.13977320318514	1.13696119043797	1.14295055637567	1.15655971749645	1.15005448465549	1.15106171611824	1.17424752763134	1.19213838358268	1.19883231668263	1.1892504680569	1.18795582309463	1.1861006913374	1.15076263217777	1.13230496119771	1.11128571739573	1.09975917739585	1.08677662540859	1.09284148523541	1.07141953323247	1.05228651557535	1.02665959217937	1.03914654184053	1.02547846775838	1.02892588344432	1.05006901344391	1.06541172211605	1.06423525144468	1.07185010713042	1.08723646537517	1.08112077873574	1.08518993771258	1.11013963262966	1.13303112593873	1.13526149482523	1.12683584687736	1.12385104346164	1.11491952850179	1.07403697752963	1.06663371646145	1.04828734867592	1.02978639134893	1.01871399768563	1.0223621318135	0.99930752179694	0.968474055638477	0.95430860611857	0.958385593124236	0.94082435720271	0.950867980271787	0.963214258788299	0.976423995201744	0.975687462521088	0.984645086852926	0.989047770026308	0.989108875942251	0.986280724098519	1.00937410084904	1.02779801983202	1.03836636116548	1.03167876936684	1.03330829362692	1.02396325716427	0.989432607927982	0.98291688820091	0.971849477939478	0.946568655501409	0.940622525445833	0.948172230292132	0.93260470623201	0.898474254304403	0.885764221908229	0.881809418760921	0.870508522639217	0.87756263522414	0.888771866345903	0.902336828063872	0.905377190344658	0.915579924056926	0.905410852005179	0.905700156791366	0.894955015356157	0.921946512655165	0.945224000722131	0.946323713023484	0.938584068708624	0.928286853088767	0.915384146778523	0.874839240391649	0.871647261461316	0.861391497474476	0.840627408521547	0.837242627242287	0.836532376136808	0.82267636140122	0.786725191197947	0.782101653514222	0.768781368267278	0.760887179502787	0.772552355841405	0.78992240947243	0.798925346987005	0.803900228139609	0.814925993849187	0.809612672239294	0.812754640091079	0.797386522182318	0.822799385633692	0.844858656879383	0.851600411196499	0.844721965456592	0.836313609310729	0.81948672004402	0.779521038262735	0.779763113900026	0.767120364694354	0.754592035242981	0.739964002206755	0.740131313044177	0.724634506766396	0.693672391306527	0.682693185308756	0.675950151410155	0.662626818980043	0.673949761182054	0.688076144382542
0.981120527583402	1.01467795367809	1.0372689168213	1.04163031599258	1.05885718982554	1.07394282729381	1.08051045300664	1.05425005516001	1.06039303466511	1.05460296614437	1.03835816600858	1.02317811947641	1.02416308211901	1.00587357707653	0.968509576991394	0.952478633933923	0.93700044598559	0.918686150073027	0.902633481578622	0.915031954541175	0.92360288479014	0.919940455827893	0.911576297628481	0.93224482894193	0.933445645653732	0.938886877478484	0.972401376677872	0.985638627388283	0.994490836660248	1.00873706421965	1.01575361429922	1.0243781346628	0.99952629759773	1.00114535004306	0.999852497993514	0.977647691168243	0.957906955554036	0.962287384400524	0.942788057482899	0.909138698601257	0.89435426008189	0.87855417614054	0.859905874200906	0.835486997171718	0.845845877482063	0.851334759088214	0.850738854155981	0.839876517000037	0.864670838319333	0.871575544624607	0.873511567029116	0.908675696759829	0.913443821319027	0.925700512746647	0.94323411751023	0.948985626072816	0.961913817315074	0.938634905188814	0.935488547295488	0.932965023109919	0.91884282856725	0.897098521098082	0.902263117256398	0.880619082047511	0.843858714899516	0.826482093954694	0.819780616281729	0.811475980293695	0.780460404464529	0.791468937506075	0.801396283036778	0.800839455951293	0.789345157720595	0.810265373382555	0.813205981102143	0.818381973737737	0.851554828018315	0.850928114829152	0.86384937182108	0.870872188347798	0.877558452300833	0.890198402778341	0.867182778040334	0.858786759910129	0.861547015553282	0.852915631896405	0.838840630492985	0.847244151019708	0.827966181268477	0.787076703718236	0.770966858821654	0.765183077610027	0.761662956025636	0.729604318319863	0.741571036128539	0.745629433743021	0.746384587621848	0.732723351880961	0.753587575527413	0.748877804291427	0.753030720524178	0.785794035475198	0.78443379413166	0.795415328847448	0.796417674169639	0.802062761891049	0.815679721738391	0.795869592365984	0.786947299872386	0.794325948458552	0.788509318727881	0.771386384098893	0.780084875839492	0.761192168666524	0.727354402696558	0.71494864847024	0.71700298776839	0.7139202462163	0.682963874990775	0.678159436553875	0.679084736854078	0.67823327290227	0.655387066808041	0.679833785159189	0.668575710037322	0.672173201521729	0.70473410281788	0.700934719251799	0.711263192934767	0.702579201362493	0.709279926518818	0.72531186678698	0.719594265013321	0.708373047085076	0.721486812343014	0.720273551070968	0.704750253208688	0.712372264548347	0.692197934233017	0.660415171334434	0.644408430500163	0.64649093294287	0.641285316296922	0.618077608902005	0.606988380152129	0.61503816358637	0.607623801390918	0.587803067193242	0.608986226925229	0.596002134009654	0.601228725283136	0.632531323873814	0.633571385363487	0.647827392153151	0.638719933542054	0.644751662762237	0.657347999744843	0.658094761744905	0.644645006375002	0.655255702703605	0.654296830771951	0.635527627920864	0.643811690391236	0.626903672528712	0.596479854209906	0.578468761716403	0.582029353306739	0.577657802086778	0.551373562179659	0.533882601118748	0.544358447368945	0.539482241311988	0.524844021487575	0.554387520696918	0.542671685096369	0.539619780373169	0.567854371569483	0.580124551683649	0.586961762378397
0.752565030029231	0.759564291903328	0.751129594380052	0.733159130878219	0.729588154351746	0.742775730967733	0.738777479977829	0.73442029350841	0.721056653665439	0.70796993441844	0.713561563327196	0.724508165590141	0.725408195061305	0.707706635944231	0.704385877778962	0.715496425619645	0.726618962054868	0.727576556447128	0.711302941911892	0.706678070787454	0.714642136143754	0.727262827637091	0.716652653385018	0.719638538466897	0.708011812475646	0.709859764508165	0.720770086526415	0.718531658715296	0.699383772302813	0.696153351785134	0.706403475951375	0.709136083641673	0.705762268711727	0.694191122423427	0.681019814517796	0.680275807901753	0.67915152089375	0.686336152917471	0.67142630115702	0.665420277153841	0.67883538973211	0.691142919781369	0.690320087401916	0.672713853329305	0.666495697285904	0.677502391042306	0.679166389112693	0.673177975143496	0.680437424536389	0.665197222404115	0.662047368177721	0.677843339372639	0.672101208037051	0.65775641344869	0.65200611144372	0.657336556958616	0.663159435520347	0.660998211178148	0.653916544542361	0.643261463539042	0.644026942642679	0.639524755465288	0.647083893813769	0.6318127293104	0.630494479460155	0.639641461458274	0.649194917129845	0.650024801656518	0.637056054583851	0.625914371493597	0.635845566608671	0.635339444557626	0.63775666793774	0.645036513954492	0.621852898709068	0.620928814857619	0.634626768707688	0.627799534305714	0.612326004615176	0.609314858958716	0.614673790565869	0.622276474976581	0.616024171583307	0.612708255208197	0.601611500166103	0.595996838219584	0.583600523964387	0.596083243919325	0.582101744636262	0.579691728414314	0.588687374932509	0.591148196316116	0.585851250529268	0.577177765281004	0.565065382049849	0.572046738973739	0.573271346683972	0.584051808265048	0.589376010121995	0.567368453667997	0.570459899042101	0.580217444278372	0.576052993698204	0.563286826644693	0.559160152747868	0.564224931061097	0.574291351938963	0.565948934253626	0.56749142144262	0.555188667847948	0.552521816066281	0.539021600398805	0.545689245788406	0.533289420525843	0.536172750112474	0.543700103235638	0.551521556945683	0.545271206311367	0.538930998243802	0.527460442831206	0.530096028527078	0.538419086662785	0.545655673940539	0.547951246800689	0.530451356406107	0.53135882430271	0.536100553493701	0.527656433080015	0.515246568381701	0.507000162682118	0.504705620634372	0.519310857125338	0.50734347413204	0.508164150764252	0.496941505124883	0.496011570635705	0.487987755350747	0.48967386958529	0.485265131162431	0.490152613018323	0.493625939409766	0.503907536760004	0.499240539197523	0.496243662528617	0.48709651461712	0.487107303597845	0.489618429558361	0.501828382104317	0.505273490232513	0.489139025504173	0.492603996123725	0.490497852357613	0.48983387675395	0.473899998950766	0.462681365560726	0.464562618027318	0.475777420273524	0.468333272182557	0.467445288809718	0.454984481016842	0.452627835977123	0.446339005978992	0.449300295851757	0.446796779843825	0.452856454475673	0.460889032879417	0.472451659317036	0.46820439555992	0.461154044430878	0.450775983834389	0.453760009212758	0.453269671442275	0.460043004145574	0.458234243073315	0.445124585202422	0.438769362473432	0.430232361853043	0.425231522150863	0.40917820270666
0.615959895846297	0.615176422345921	0.619922762817411	0.610320507492201	0.605967567016651	0.616153036766181	0.628601591622453	0.635241822242888	0.641520028630297	0.648154590968444	0.644369585701148	0.641777117513742	0.630239033624753	0.640916568472877	0.629100735925203	0.637310708542412	0.623881400815844	0.636429540556617	0.623987002120725	0.609340566754991	0.585751271438114	0.582894680113553	0.581550209949926	0.578373999649266	0.578771395549709	0.570429253857617	0.573917159126193	0.573417601498868	0.567500761248604	0.565453850822923	0.572236726736939	0.585925066842825	0.591737459042288	0.598751842339883	0.60292057457036	0.598327735574826	0.598610157165076	0.594846834232587	0.606874469709235	0.591579004544221	0.594494574677631	0.583079844122352	0.593075575881757	0.580033143692353	0.569529123048242	0.54885366191143	0.545279010654568	0.545261625256119	0.543047915492566	0.548701048143065	0.535478379403722	0.535701511961174	0.54309881022075	0.536433763394042	0.53739304880675	0.543289964339463	0.551516558695918	0.552924268356486	0.566856292886296	0.567456602280042	0.561952122916347	0.560862232949288	0.555300358639269	0.565628628763382	0.553899945474447	0.552305558013969	0.542617349735494	0.554209350591256	0.541939580983328	0.533241863310604	0.511439398783323	0.509761509854812	0.503072161030213	0.506451831637502	0.51160757551867	0.502073110117644	0.506454800265596	0.501911463496259	0.501661270206429	0.504162189960667	0.505868825831092	0.512356940596372	0.515969338710459	0.531535269694766	0.536910914214549	0.526609260580359	0.525120270450646	0.522413751024084	0.533862464483853	0.524658408883071	0.518407630745297	0.511133080626979	0.523236974810487	0.510335259336166	0.50236801203202	0.477380197288293	0.479554311956749	0.474678482436361	0.471257749620037	0.4749877294427	0.464310851412407	0.465096673940841	0.459405317492534	0.459462228007358	0.468002410880387	0.460548863881502	0.464683727638555	0.467602083205565	0.485176212305289	0.483660584274959	0.478094141210341	0.4839061425118	0.481840293039706	0.491351993503628	0.486655288573904	0.482903927089571	0.482136245764982	0.493617274279827	0.486246327024329	0.470310960816768	0.453010184804131	0.453354172585859	0.443769409610648	0.439312001381989	0.443026834906955	0.428439539176059	0.429101520811008	0.421430612641859	0.417649994997905	0.416615194715908	0.407067459370166	0.408425655346045	0.415779985553483	0.436831327993901	0.438624537450237	0.432934207516557	0.444061570618567	0.441972300744628	0.44456619949517	0.444234512675772	0.441384364068242	0.445128376321679	0.453352884545718	0.448280420786783	0.438126158313351	0.417853993865318	0.413645228199774	0.40500001190556	0.393668458141263	0.390087913363224	0.385533916412684	0.385046005434038	0.377943054362597	0.375739761740306	0.379304592678985	0.365510995531006	0.366548835595899	0.377346564178597	0.393384240999957	0.399543207979515	0.397647868013677	0.411958508355381	0.408937972366181	0.414669608404633	0.417180232766436	0.408060116982733	0.413870849874804	0.418418429942733	0.419347466369269	0.407375892561843	0.388869260729903	0.376969309209937	0.372150446780979	0.360729781752853	0.357510837891204	0.354263019998972	0.347178630650706	0.349302884280794	0.341543904653724
0.435293000619536	0.425984903237768	0.429733257450755	0.425541658723144	0.43254540769913	0.439056011729519	0.434149234037713	0.438338956465136	0.44609531597061	0.447440098556154	0.445213903594678	0.452573606051606	0.445115309947311	0.450111056150302	0.449620649061065	0.455431924511137	0.448586673981963	0.446792727101384	0.447186398715855	0.441006578776321	0.431502399368857	0.425413460806875	0.432302687802643	0.415976049861872	0.413284035308741	0.416939003951378	0.407234520565584	0.407854876210356	0.407786466071766	0.409095692141487	0.415133886546716	0.411901226876538	0.416149432825021	0.424941134097716	0.427057052319083	0.421551904960238	0.426955431139471	0.420894262029362	0.422010871373329	0.41931617467509	0.425393888644582	0.419398353058543	0.413907610695662	0.41401999575396	0.409666292900536	0.39871338974981	0.394719089831824	0.405137028031849	0.392439894729777	0.388436811037232	0.390074926891354	0.384420426489607	0.383974647654124	0.383619972940721	0.385960103582142	0.388211580615825	0.384839489522555	0.390595026072194	0.39389458307897	0.396458444801956	0.389243585787534	0.394201909612779	0.388795187104801	0.384077526723476	0.387252326737078	0.39398117325933	0.384791467449528	0.38293919280573	0.379082794444123	0.376255516369941	0.365171892468954	0.3649425132629	0.373793362602365	0.365573828621824	0.36493000806271	0.361147434871521	0.360187403696737	0.359590226313258	0.357424874497709	0.362423744091931	0.361647158864932	0.359835023750702	0.362638667494114	0.365267206646542	0.368727761032597	0.361096364367914	0.365584168714212	0.363614819344428	0.35922903232466	0.361170637463673	0.36848248251448	0.35367088988223	0.35579390452272	0.349131365265968	0.34458308268304	0.33514071760791	0.334897388699053	0.345613323203265	0.337335081731572	0.334864170290185	0.33324456612429	0.333285186166523	0.333429904678365	0.334872370291204	0.334079332809319	0.334667389017498	0.333798981340584	0.338984538805916	0.33957559416615	0.343359768607078	0.33579279551503	0.342693522209994	0.339979120301654	0.330991576386721	0.334809567641981	0.334686817170888	0.326985381317729	0.332053886114835	0.32784641393006	0.324045461362041	0.313979415235056	0.315406903780296	0.323393516504945	0.314429132567691	0.311957274239038	0.30937306993653	0.306029255517755	0.306602179394225	0.307469485220326	0.307460659946895	0.304542381636043	0.306512952461794	0.310458345885383	0.306442652612622	0.312290763837988	0.307745232343795	0.309965434195249	0.310336070069564	0.302086754983814	0.306523817373515	0.30140734219606	0.296098960590238	0.296573217909561	0.29514309593019	0.290018588637275	0.282230658839101	0.282358674582811	0.285499611342658	0.278140047168684	0.275295276788635	0.276724145091278	0.272441833321001	0.275114562352108	0.273057439961975	0.278989910293886	0.277483031123326	0.280810711998381	0.284154705634325	0.279531502883119	0.284989334198186	0.278373827058962	0.281145525795962	0.284408032620658	0.27482450645166	0.284395522860813	0.275745795305849	0.26974222032479	0.264668272070843	0.26281604154297	0.259852469631163	0.25349573086905	0.254366173237813	0.256322046954085	0.250564986458147	0.245023903243636	0.249728774436829	0.245373716945862	0.247523051116681	0.243511278813709
0.372169840536479	0.363394825762095	0.361319200887165	0.3620395632436	0.360222042788675	0.370312986227165	0.374793534663284	0.367601071259108	0.369262174780759	0.355006746007956	0.35527942843608	0.342110776599821	0.34703798728135	0.357170395884707	0.360054888641783	0.356157673537241	0.35157266685473	0.344414331913517	0.33875558217297	0.346751276914463	0.346316940712161	0.347770199127975	0.356202218564121	0.354332965466595	0.358086823906663	0.353903957742014	0.342926822202535	0.342218718172135	0.347378914502056	0.344785032526081	0.34913779689161	0.348824786060816	0.341299878318597	0.347588197259421	0.332116928348023	0.330490692133648	0.321627677347247	0.327554821236938	0.332214946566242	0.337082408346146	0.334834378291547	0.331279705455319	0.330045110094984	0.32583074341578	0.332111828881665	0.333275393466366	0.335349655338305	0.340451280600284	0.339866240972116	0.345588169266068	0.340824459706856	0.332363135098468	0.329981337436118	0.330070665522759	0.32574023096227	0.327874353814305	0.330432308269742	0.315777232725954	0.326891923040073	0.311791963243676	0.312811622916912	0.300185758361749	0.30200047554596	0.303862471493752	0.30660618435031	0.308543793678837	0.308403450025696	0.303828087679044	0.300702249523475	0.30323106439192	0.304819064300377	0.303329930551243	0.308681041760636	0.310237955870915	0.316117757743595	0.312389257693896	0.302774889681218	0.30133078555611	0.299436877147749	0.295473926145745	0.297755673438473	0.305379449422213	0.291120232411334	0.301043870646918	0.288207238265753	0.285730442280694	0.277472181920914	0.282156180394616	0.283861670388896	0.285258472798681	0.288092777226974	0.285163036185469	0.282533462080791	0.275633911028429	0.275384034246287	0.278345832385837	0.276068843953203	0.287140926718663	0.284963332538513	0.295163866064942	0.292488632509238	0.281274377652928	0.281149766253773	0.281384547773331	0.27862952339283	0.281274658355552	0.289409071279064	0.273716920892126	0.281667029475842	0.267606092487426	0.264778130528806	0.256948048378743	0.26401068554114	0.260337482129764	0.26469825109946	0.268188731414548	0.264423730926577	0.264120145738252	0.254934808783413	0.257631060923258	0.260149748652805	0.254698504656409	0.265252240961165	0.26083634207942	0.266149009254812	0.258694157424119	0.25005792480892	0.24648706932545	0.24497708980068	0.242668024200651	0.245500383045138	0.251407622154151	0.238416881567541	0.246804541844423	0.232602583875982	0.229016067594444	0.228318741099685	0.232781047859695	0.228102503271894	0.238482128704315	0.242715797865144	0.238212251350337	0.238361488409146	0.229771638460473	0.22921613494523	0.23172372292742	0.230417797017454	0.239259346206802	0.235809299765689	0.241805812627204	0.236035438150196	0.226470731484408	0.222573713149575	0.219498809717099	0.217680761604878	0.222615072854225	0.225590212566208	0.215313127781512	0.223761444792668	0.212702758113217	0.207938235110578	0.206368706370844	0.207358367856638	0.205788740383292	0.218494497874805	0.225002889811925	0.221221185886885	0.223822897704764	0.215515602187687	0.210563238156306	0.215052324308764	0.212269782532251	0.221507225423572	0.219123599235313	0.22624552005886	0.218911569077147	0.208243138652428	0.201670816001095	0.199357652531556
0.296796820535959	0.297318614162309	0.290027870897846	0.294153949579906	0.305688479851126	0.298795379089221	0.298289232104681	0.298842496932979	0.290566164170795	0.306830800003137	0.296981034428932	0.301765905596322	0.311458036707234	0.309359698075785	0.309948508798893	0.319679999755169	0.310470657599007	0.304960252749029	0.306411891866127	0.302901768162725	0.315096941072391	0.302362327269426	0.298700767508327	0.303536898077369	0.29206732862348	0.28639745012219	0.283868335793067	0.276205151161995	0.280589908047602	0.289237035806941	0.285231420897113	0.285478024449669	0.28509107804829	0.279205266014233	0.291279505463277	0.283710414406263	0.289889737622277	0.296085799382253	0.295633362667003	0.298270154289577	0.307874448296252	0.297210341217705	0.29377065590482	0.293067443848701	0.289192524804535	0.29869529871261	0.290117234471758	0.285077988534297	0.293015818046825	0.28128580785019	0.273936458647452	0.274161407114073	0.265312755641131	0.267437313298777	0.275883098338426	0.274921151349158	0.274243181296362	0.272436894893607	0.26621655705659	0.278061102818241	0.270726213984351	0.276905537200365	0.279211975397526	0.278785972229306	0.277237142753596	0.289871421064655	0.280187096426394	0.275905273900516	0.275156783027979	0.270506727469137	0.277303074412607	0.270146912843034	0.266595653403897	0.270069132178931	0.2645459653183	0.256595392937514	0.256462490716866	0.248313768572316	0.251225255746757	0.258837289313859	0.257930029249134	0.261087013621702	0.257275460149171	0.253749676641619	0.261850785765423	0.255837944099917	0.257173297558741	0.258672617542082	0.256537270221641	0.259206282529923	0.27234274727964	0.262607562495292	0.253393283763834	0.252825433396277	0.250000188168231	0.252784361626964	0.248792256457103	0.247349678342228	0.252152626725261	0.247684607654311	0.238647396577809	0.23826357053808	0.227738170348376	0.228915034762495	0.230690628515394	0.235198083208402	0.238631078910316	0.233915337866915	0.228948270953413	0.239304837641084	0.236305580610041	0.236067438296461	0.238799946772206	0.237070347278386	0.238610766469143	0.252496772157963	0.242915432306213	0.234028137806417	0.23205495822836	0.230773804704624	0.233198596490078	0.229479359289716	0.224267426028716	0.230105129013105	0.227876227041675	0.218642771234748	0.221916185280382	0.210838803220843	0.210474329357595	0.214301501868365	0.220737623368498	0.226050189395915	0.220624488000683	0.216298732793396	0.220471774727822	0.224224438232488	0.223938331217639	0.224151823627468	0.222776761120216	0.223218277084489	0.236411770769732	0.224564228734281	0.217589869222923	0.213158631592348	0.213357143178614	0.215336587190189	0.215596398239274	0.207295624393018	0.215084733960157	0.211435055660263	0.202552668598816	0.204264215090312	0.195301883677749	0.194565729339024	0.195229302205609	0.199020004324963	0.203680168232935	0.199342642988033	0.19412662648617	0.197949882866484	0.201422893033559	0.202641834945939	0.20394387025206	0.202181938390628	0.204621672928635	0.213902195715477	0.209054669830151	0.200413933640913	0.195210003932815	0.196844149416967	0.195896526880362	0.194851105703671	0.184979642880498	0.191027548424994	0.188449213406037	0.18248649846184	0.186898345854746	0.173130843853433	0.17113794160707
0.238017009613024	0.237173512035939	0.235297900039479	0.223035843517436	0.228001454389953	0.222213018025397	0.219722857455249	0.219726383262433	0.213072052874655	0.213463010323061	0.208508923141316	0.194654244142002	0.199055514002729	0.196893471088649	0.199201194720952	0.203410582557386	0.208835336962789	0.208191851384458	0.216744001185084	0.217147639388576	0.214699540205645	0.220739908444613	0.222707690949272	0.227907526272144	0.233796734116769	0.228966212157919	0.229318577622691	0.22830450881453	0.217038616153738	0.220382700613979	0.214544700724779	0.210777347716253	0.210409046803378	0.205798755475308	0.200231619499161	0.20018676051432	0.186911442341392	0.190564224905923	0.186565788767794	0.191636258041924	0.198624348542982	0.195531089549582	0.193526206680106	0.199536302889481	0.202405401029814	0.197968285580379	0.20422301058808	0.204547581661404	0.20848082210106	0.215587272207048	0.21210580275375	0.210034128144843	0.206913171490485	0.199200676975037	0.199340862279664	0.196005751851911	0.192994039465009	0.192541492584001	0.187327811886349	0.185873376937963	0.183196155842075	0.172373837800723	0.175569327065061	0.172049051659569	0.179995269418355	0.187105732137616	0.186694401769268	0.185053554579943	0.189184315763558	0.191071125969568	0.189101618073328	0.194575514438685	0.195960416083904	0.198522512157852	0.202860593250269	0.198000346403405	0.194893764777031	0.191023307607191	0.183672414008133	0.181091695540189	0.180037258360386	0.174237654611776	0.176017585763694	0.173778686170163	0.168983053975157	0.166938592761268	0.16083910717437	0.162273312169733	0.160577228923056	0.166091723014766	0.17343225086802	0.174932073296648	0.171853793684234	0.176191359762498	0.178418532298628	0.173252504500096	0.1819950060777	0.179120270771325	0.177405396545934	0.183489540330784	0.179405542659444	0.17892037231952	0.174204238039416	0.16786810631405	0.164930578428482	0.163816662825369	0.157946345300351	0.159278154508736	0.157310422840627	0.155226248160267	0.155410279710064	0.151057090106334	0.151592412198193	0.151531605881651	0.155660298611421	0.163702758611931	0.165237820137833	0.162896314142828	0.16671037025222	0.171101069303955	0.16803016591132	0.174506868477823	0.169269287651393	0.167210641005321	0.172978131567489	0.165477290427671	0.16553525245873	0.158947855048375	0.14991679477687	0.148746676373829	0.146008854737518	0.138349393014421	0.136039237140729	0.137843704722988	0.135759530042628	0.133995947123071	0.13301103755173	0.135413820218495	0.136037907044658	0.13892237666631	0.14895598971051	0.149405829336696	0.149654081815521	0.151380827644147	0.152714233521244	0.152290132571189	0.154978926277452	0.152454840783817	0.151011418987491	0.152326388117736	0.143154973589093	0.144640193695695	0.13826426047918	0.130085875518405	0.127384119235592	0.124718993366901	0.119311729344861	0.115050670275509	0.118266766379491	0.114198487690911	0.11236070943361	0.11653355879048	0.119386368659581	0.120051005157658	0.123170563785512	0.129909504822659	0.128992142983195	0.131675559100992	0.134554223908694	0.138232251934958	0.136849895823118	0.138872310647997	0.138882741940316	0.136282340020096	0.137610279138451	0.130689149201243	0.132005272099401	0.127668045279033	0.120192286641084
0.175351110176876	0.177150613178487	0.171845960407088	0.171852097114333	0.16781433217382	0.170276981334731	0.165845890515826	0.171550308264115	0.170041551497213	0.168306008742108	0.165022476275596	0.160612943720163	0.159743577770087	0.161764506577962	0.164987910383493	0.167823353178786	0.167295453769583	0.167948668032145	0.168233469727798	0.162531128929246	0.162437274103933	0.164783698658299	0.163701137879908	0.167191806868606	0.170257309285822	0.16600307095606	0.168611949926295	0.16276220128302	0.161818790775775	0.161034673660576	0.160162154545651	0.156073484064056	0.16205914004858	0.161654679814897	0.158533044933639	0.156642385301132	0.152022862987735	0.149523365990492	0.154153794374505	0.152815623766593	0.155810114020383	0.153137995899138	0.157696663722092	0.155732146178761	0.15234875540401	0.153644028197854	0.154628963637804	0.153774859555779	0.156052500270021	0.160253125136376	0.157452166959888	0.161023051387956	0.155855993896823	0.153821961378056	0.153897572083769	0.152037802121269	0.147747830084887	0.153395084830618	0.151933994034316	0.148847287317028	0.14909341579296	0.142919756197542	0.141004151848914	0.145415244123863	0.143563441858221	0.147258885809091	0.144606934078947	0.149521321309356	0.148476740437088	0.143787578492831	0.143654052808003	0.144351457998815	0.142507415680286	0.145655540812927	0.15053109836	0.145568890013022	0.150552862914656	0.146272536632543	0.144994144735399	0.141272146455488	0.137160630943272	0.136553683581227	0.141492650968274	0.140742435458243	0.137258856588806	0.137754537179513	0.133635980930639	0.130893130486826	0.133953006033028	0.130660956748028	0.132313508453426	0.13236368928926	0.138114431687248	0.135592795289825	0.130886523646602	0.129958717644683	0.132297531130089	0.131134263844305	0.132042703355281	0.136398518322163	0.133360340684208	0.139109349657821	0.133044374329079	0.13428618235813	0.130425076049501	0.126899104242795	0.1299082976769	0.133032172544342	0.131783983526335	0.129426084188099	0.130568642094471	0.127292423485254	0.125234420706301	0.126295466801206	0.122148286824152	0.126312376672267	0.121946840831082	0.127232489029716	0.124777207108087	0.12051220265245	0.118411946300359	0.118579006381582	0.117638515763587	0.120352392240156	0.122886320077816	0.120162603239156	0.126742077629518	0.121483180786556	0.124578610307057	0.121397820801867	0.117844057279409	0.120267757172696	0.124703369822164	0.12494208654348	0.120621399818101	0.121036136953464	0.11746239552163	0.114514131448101	0.115945788631582	0.110460193899135	0.114677206577452	0.110838500698348	0.114479105157958	0.11166754512742	0.109529559928882	0.10599776008813	0.106978854273739	0.104770532888451	0.106971382805414	0.108003333597484	0.107588737291609	0.112112872408646	0.108235704990874	0.112135210607436	0.111519401512334	0.108799389462424	0.111223089355711	0.11568649372093	0.115895388750148	0.111840383951409	0.112968158187471	0.111486583072562	0.108192448665274	0.103988448897331	0.0987886851602291	0.103448344991832	0.0977935997058574	0.101835203529405	0.0976522648633933	0.0937929536047808	0.0918092838917594	0.0939673307670302	0.0904317992369802	0.0926090599565985	0.0931995470627204	0.0976677366583854	0.100666632921867	0.098724695270634	0.103115825427678
0.123442282718675	0.121863713408971	0.127891363969672	0.123771394166923	0.120626644144662	0.120439306235815	0.117563043568765	0.11365590649006	0.114258404774018	0.107943113049313	0.109438001776525	0.105437594362161	0.105872690394438	0.105813917762587	0.100326089590668	0.101191863215538	0.106747076976481	0.106611916183942	0.106182590229268	0.109709007036667	0.109591261816781	0.110838858888658	0.113925141167788	0.116100669364632	0.120934057857594	0.117994907089594	0.11728310782974	0.122040032052641	0.119180676817031	0.113796158305361	0.1150929482643	0.111906611173236	0.111969557732925	0.110226210784291	0.104753035748043	0.105408707416878	0.101335147280525	0.103282337072847	0.102602877423064	0.0989290723838478	0.0997948460087177	0.103705016030635	0.103618070259807	0.103262579199115	0.106788996006514	0.106671250786628	0.105940542081302	0.109298888289248	0.110584155191516	0.114686278566777	0.111747127798778	0.109268901524987	0.111137184579215	0.109103372001974	0.105368171618332	0.106395389213867	0.104107940803135	0.102125790047894	0.102236659483345	0.0977140856738603	0.0977185912443689	0.0936450311080156	0.0955922209003374	0.0930326878192011	0.0930783352315191	0.0944709388184702	0.0983811088403876	0.0967946606399861	0.0934300025688987	0.0960088683537848	0.0985793217580476	0.0961775231158011	0.100938188687933	0.101776290109164	0.105215657679723	0.10311913643577	0.10073476721783	0.101372909107842	0.0976036690660333	0.0940980395826808	0.0967537838497493	0.0962863291836261	0.0958448021173787	0.0939782812044463	0.0932432957089826	0.0936949667605274	0.0893642257578153	0.0915465045563391	0.0889641432197076	0.0892507772776499	0.0919755639575497	0.0948144292187544	0.0929622274564488	0.0886896087442216	0.0904616182653519	0.0914628525609603	0.0890610539187138	0.0923812312043619	0.0946598209120771	0.0961979860291078	0.0950520660119185	0.0916570075524024	0.0920165893565494	0.0895195610465658	0.0876272885946801	0.0893471623802665	0.0903057408403931	0.0892353532616657	0.0877126211321449	0.0871583981134173	0.0867763176924145	0.0826405372948427	0.0825233883136147	0.0808656005823355	0.0806254046781966	0.0792007178076544	0.0840461107642286	0.0828787566667827	0.0784988622409201	0.0800099210242545	0.081165535301018	0.0780197084477631	0.0813667809422031	0.0829934901517227	0.0856686313279015	0.083783176721309	0.0808921199683788	0.0847029884040166	0.082205960094033	0.0796509318374443	0.081971470479094	0.0829300489392205	0.0804186589845239	0.0807394185321123	0.0802112231347961	0.0795039858316532	0.0753823070087302	0.0746483042298512	0.0730274141081385	0.0725507805224725	0.0705254287958671	0.075432912701081	0.0739759621651225	0.0711277056190321	0.0731831553631839	0.0736472896652515	0.0702375476215	0.0719969352098398	0.0727640201057001	0.0732332519444038	0.0729254192007392	0.0715708317117769	0.0759823650034779	0.0734853366934943	0.0709303084369057	0.0725659994136956	0.0725739766470583	0.0708182273139852	0.0737867056466693	0.0728015900430909	0.0730360259242192	0.0713740662244638	0.069689462218821	0.0682383446815278	0.0658658413058955	0.0602189700163823	0.0640369141115512	0.063716770466862	0.0618191151475355	0.0610817712453738	0.0626658605294088	0.0596548216818202	0.0605813841881374	0.0610773641551745	0.0609676508956942	0.0606068953218263	0.0602866344345311	0.0644370323102515	0.0638188336493509
0.102720987206827	0.100453077741691	0.104730390311685	0.10152117265962	0.0994897781236892	0.10134847358311	0.100283777424182	0.0958532808980683	0.0958436134214149	0.0998923205662565	0.0981451518775873	0.092932456711525	0.092256074839701	0.0937963684460718	0.0915673911110293	0.0881969252297834	0.0920976799323588	0.0902075512391944	0.0898764448939342	0.0936152461349238	0.0924969587270796	0.0911045892871936	0.0885350795019879	0.0948406582253696	0.0961609862186264	0.0961165078352621	0.0943827527535858	0.096509281524743	0.094984218295334	0.093208974474975	0.0956683347904587	0.0933744000058536	0.0902951507043135	0.0911815805533261	0.0948557126088171	0.0926827145234008	0.0878888007651768	0.0865496630886498	0.08751103366277	0.0875305316055591	0.0831847590026337	0.0883896460951085	0.0856926611381883	0.0853283924089015	0.089067193649891	0.0872108266191594	0.0871009277629782	0.0848930188941631	0.0918192846354768	0.0929686169608889	0.0930951342453693	0.0897256612802943	0.0934879079348502	0.091101301517142	0.0872804414945202	0.0917467078202023	0.0896542323275755	0.0873558116683798	0.0873519802228165	0.0902156082594773	0.0873175031060971	0.082585940611134	0.0797834863926284	0.0806204886026271	0.0822545666603081	0.0769581928306189	0.0828665490538629	0.0785341152053191	0.077484262415834	0.0805306428354273	0.0778405243321479	0.0771400754828364	0.0749100747538646	0.0810425241494044	0.0834888917728406	0.0837595095163738	0.0781057543343197	0.0829796919539764	0.0803688447644426	0.0791669854206397	0.0824799681441545	0.0836036288001494	0.0812190229424396	0.0820313787456686	0.0856388697223732	0.083863709172171	0.0797735232624042	0.0764935956802589	0.0778924822984277	0.0802578254738089	0.074408751489325	0.0796724446328952	0.0757180804630566	0.0740869391031877	0.0764484718579213	0.0738619124491179	0.0732078810526468	0.070977880323675	0.076529041148831	0.079556697342651	0.0803371505333596	0.0746833953513056	0.0796311678649442	0.0768088224507204	0.0757549505496861	0.0780915690971352	0.0792152297531301	0.0762607004334322	0.0783992804867174	0.0802441289161705	0.0784437803452474	0.0743535944354807	0.0703888191884756	0.0724725534715041	0.0745031834206673	0.0691985003970007	0.0738615286845077	0.0699894045048355	0.0662609948134159	0.0682232347165339	0.0652591825879824	0.0655129727737386	0.0635665245609675	0.0689072855919121	0.073449473969843	0.0742299271605516	0.0686820745451732	0.0728985819411117	0.0714081665006513	0.0689939978652559	0.0719684533312564	0.0734664258618752	0.0713073223068053	0.0731466527069607	0.0733995233244535	0.0722405513387268	0.0681503654289601	0.0627311516914753	0.0642084093833992	0.0654128067831272	0.0601081237594606	0.0644913380120734	0.060828584885513	0.0589287679111135	0.0589373013597163	0.0577269373747743	0.058421493340119	0.0564750451273479	0.0603383749694474	0.0652626290645047	0.0643348762222338	0.0617351684156683	0.0659516758116067	0.0649546495135741	0.0622546441309436	0.0640419297580381	0.0673841033830322	0.0652249998279623	0.064819334813833	0.0645403856124003	0.0652650550814653	0.0609998569540142	0.0577764391938971	0.0592536968858211	0.0600109288045128	0.0551534112618824	0.0594809147407123	0.0564841102068843	0.0549294775478382	0.0534080715738071	0.0537000055699391	0.0512723809386729	0.0497269534475361	0.0533799668101312	0.0590354860228888	0.0574000572602628	0.0555080253740523	0.0597245327699908	0.0584241511932536
0.0793960229329675	0.0776652061193809	0.0783161187612392	0.0768787129049454	0.0763265132658481	0.0718915201320203	0.0735578367594047	0.0713067633771002	0.075425673670699	0.0698989424307348	0.070884516325592	0.0666056312510316	0.063105634504013	0.0610493152967368	0.0607430778577583	0.0632346441216586	0.0624928976252057	0.0636058668777806	0.0646021963781394	0.0672239356573646	0.0632183429097093	0.0654226626043114	0.0673801043071449	0.0658533523942906	0.0702678419747749	0.0746482870699113	0.0735727210210196	0.0732167080893931	0.0708890409385234	0.0718317087069508	0.0681354754286964	0.0691390362513779	0.0669881813475985	0.07096195304702	0.0654352218070559	0.0660653402358927	0.0625672838036767	0.0590672870566581	0.0568342723259424	0.0572357108073189	0.0593534112984029	0.0588752426151359	0.060029990514344	0.0599294790471413	0.0626984038480999	0.0602073432845555	0.0618491256529797	0.0643192878178453	0.0621918710489277	0.0666063606294121	0.069052816638195	0.0688971872603651	0.0692724394464388	0.0669447722955691	0.0672025923991367	0.0647918716418053	0.0657954324644868	0.0625701792938103	0.063789892829202	0.0602714088716586	0.0607213635142144	0.0574943002771673	0.0552886105633558	0.0526218535375572	0.0529017854365341	0.0554247582577843	0.0540563282799413	0.0519672730546416	0.0531836756058273	0.0566012299641177	0.0552116357935917	0.0575846832797162	0.0600001585200383	0.0584372641228396	0.0636586099670798	0.0640540240869855	0.064428323208429	0.0633851789681762	0.0620620371483095	0.0623405468191415	0.0612353607446019	0.060057566625173	0.0577095360067074	0.0584812588390365	0.0544529394343177	0.0540126327822976	0.0488345856451472	0.0486758608089236	0.0468392770628883	0.0468917034719922	0.0500560528784388	0.0486876229005958	0.0465985676752962	0.0484777260311848	0.0507502245725947	0.050429975528459	0.0531527168373466	0.0564584533722446	0.0555804066399056	0.0608017524841458	0.0618385431892479	0.0631031036052673	0.0609761319631106	0.059652990143244	0.0592466521492163	0.056745177275951	0.0554958808447808	0.0529536391221551	0.0542860239937257	0.0511192477773062	0.0494905597155629	0.0443125125784125	0.0441537877421889	0.0413349160618309	0.0418084140681358	0.0442650875542274	0.0429808403851809	0.0423262014884921	0.044936624962081	0.0467157343610631	0.0446727785311056	0.0461048557504734	0.0494116915839383	0.0487398362592919	0.0517103393743272	0.0533106366059137	0.0546372879705728	0.0532179922487711	0.0510610989563568	0.0508678254169448	0.0474025915897539	0.047205170924771	0.0467909083181332	0.0481232931897038	0.0449738416778262	0.0443566840651093	0.0418915506542346	0.0415309202079173	0.0393127133836225	0.0381585987985106	0.0413442234034251	0.0415793247249045	0.0401438571858714	0.0435351093018046	0.043556761210267	0.0432452352494178	0.0438964838264412	0.0466986357813274	0.0467116281215408	0.0495951423341531	0.0511954395657395	0.0525220909303987	0.0489060195561719	0.0478620745142788	0.0476688009748667	0.0442035671476758	0.0425230562077006	0.0424904166793222	0.0423476734931486	0.040632638309882	0.0393306330323054	0.0382580232066454	0.0373348554341503	0.0327635796426248	0.0345688880630077	0.0371131360827257	0.0373482374042052	0.0352713932799757	0.0383007517547535	0.0380893170467315	0.0384191676710786	0.0383855685832423	0.0418725682029883	0.0411047319008573	0.0421111282365737	0.044137743591336	0.0459843452661035	0.0423889634591411	0.041345018417248
0.0525013277146239	0.0563299928188872	0.0550277322622588	0.0582174999524043	0.0563630622683705	0.0585338457566011	0.0564213327177653	0.0559322203003892	0.0523082219863513	0.0565892016109936	0.056786129730212	0.0587346368457303	0.0541609609783898	0.0544004259100689	0.0516443470467474	0.0513682544445497	0.0502528239034514	0.0514877773144871	0.0484516048187439	0.0485826388987402	0.0540587441668385	0.0527327810411215	0.0509442928023848	0.0470885701820161	0.0499016879613732	0.0477196577223016	0.0523291514689092	0.0506840382215934	0.0542292613777592	0.0516671477733704	0.0545456071819559	0.0524330941431202	0.0507420061374283	0.0471180078233904	0.0509518219669964	0.0507565845008362	0.0539461822522599	0.0493067716812693	0.0500906275737657	0.0479469756777755	0.0465042388669029	0.0456939093461803	0.0471490293603187	0.0441128568645756	0.0454458665328876	0.0502371241361263	0.0493583264914455	0.0476279879444629	0.0428216640973304	0.0462886102945092	0.0447914277202972	0.0500216084848369	0.0483764952375211	0.0512140424733318	0.0483733687830776	0.052171764862725	0.0500592518238892	0.0484523466269938	0.0454290131690192	0.0480874360828568	0.0491202917254674	0.0519048201060678	0.0468102021957045	0.0475733685209365	0.0454297166249464	0.0446946557344288	0.0413160710360901	0.0446545985629849	0.0411856852791422	0.0412469213157179	0.0466748408398242	0.0457960431951434	0.0440657046481609	0.0397862107631095	0.0438945335454848	0.0430387275564692	0.0457362751957893	0.0458429664313487	0.0493653613320192	0.0453250775915824	0.0488217683281585	0.047631647650326	0.0451435449961798	0.0428278874585602	0.0438986254662976	0.0446668619742186	0.0469069993940017	0.0405047228792128	0.0425755478088704	0.0404318959128803	0.0390961701662995	0.0369171955181434	0.0397936520479674	0.0354605855111394	0.0361211293461405	0.0408177837525466	0.0422579361316662	0.0407922167193733	0.0370571137951392	0.0413255782019268	0.0410904592308433	0.0429811506064076	0.0436885066980302	0.0449647531682972	0.042693144494624	0.0456750728458772	0.0463473180229304	0.0429086141420203	0.0405929566044007	0.0405638196625901	0.041724255199704	0.0439643926194871	0.0375621161046983	0.0390435084993862	0.0374623939295739	0.0359834545287009	0.0344251668984768	0.0360595819870412	0.0323678920354095	0.0333583500792425	0.0365364053482412	0.0373022259795833	0.0357469643704632	0.0334834113111889	0.0368903325296772	0.0376428322990855	0.0396599110246211	0.0403672671162438	0.0412247321786724	0.0386031871342987	0.0418044515946155	0.0438286489073009	0.0419085441637982	0.0389721996082466	0.0382353867460809	0.0394621216183535	0.0412960220890599	0.0359413591085442	0.0368431271218262	0.035004529077477	0.0346071268891453	0.0324281522409892	0.0337633176764238	0.0300716277247922	0.0303993299639222	0.0341980722508529	0.035626648686898	0.0340713870777779	0.0318078340185035	0.0344834901192916	0.0367228956280238	0.0387399743535593	0.039447330445182	0.039136588960333	0.0386031871342987	0.0418044515946155	0.0427205303748358	0.0403532601502969	0.0374169155947453	0.0366801027325797	0.0369562363780884	0.0393485390463656	0.0339938760658499	0.0344768626712936	0.0324563811787195	0.0320589789903878	0.0291723284218766	0.0297518532356877	0.0264834341516614	0.0273224625187553	0.0297940641907105	0.0331704682596631	0.031615206650543	0.0297438526204617	0.0324195087212497	0.0332428014474219	0.033949193921569	0.035787072478299	0.0357512661257055
0.0413109953074944	0.04077898751723	0.0411374146663284	0.0424029072905354	0.0416295103385774	0.0412382587238243	0.0431290887349261	0.0428238085163365	0.0412956736440025	0.0403993508704643	0.0408151494706892	0.0389875884190458	0.0380387076000395	0.0402911667728508	0.0411719010703386	0.0405530610793815	0.0377784146240771	0.0406913591282999	0.0385290249272483	0.0382336402897746	0.0395079878828547	0.0402358950274592	0.0395042860217057	0.0436749430311854	0.0435504278817098	0.0400300783539105	0.039498070563646	0.0397333062203211	0.0405213254808883	0.0388576672343543	0.0381744427069516	0.0398638564882752	0.0400057417507219	0.0384776068783878	0.0383369247264732	0.0378979023616738	0.0349299246015757	0.0348147952551172	0.035730325235921	0.0373259884258992	0.0361973129877667	0.0348227632742137	0.0384669728961367	0.0353819150549529	0.0343057017751349	0.0363608780105593	0.0370887851551638	0.0371640324131662	0.0412740410683176	0.0411495259188421	0.0382104649614265	0.0372216733747867	0.0362838813599244	0.0379623738604325	0.0365812700454949	0.036582893182952	0.0382723069642755	0.0384141922267223	0.0368860573543882	0.0367453752024736	0.0359928857163462	0.0334877750593391	0.0323332928586819	0.0352528518722812	0.0371744461588282	0.0356347756615889	0.0342602259480359	0.037560446409294	0.0344753885681102	0.0326914993679371	0.0354543515237167	0.0361822586683211	0.0354237544537758	0.0384062682907828	0.0397161694699182	0.0361564214945706	0.0351676299079308	0.0347923752192463	0.0364708677197545	0.0354337530654817	0.0354353762029387	0.036263246795963	0.0359579665773735	0.0348769971860757	0.0341919240733438	0.0328011865705483	0.0302960759135412	0.029762280730816	0.0323263842783951	0.0331850376046358	0.0324010077290201	0.031026458015467	0.0336418308118655	0.030755560354278	0.0296344269588079	0.0323972791145874	0.0336695772200091	0.0333913033193534	0.0343634578820947	0.0359254659379902	0.0314748445653722	0.0305481439273721	0.0301728892386876	0.0318513817391958	0.0311873525619424	0.0311889756993995	0.0312099900286679	0.0311490287476564	0.0300680593563586	0.029287005266142	0.0287799428595166	0.0268561207728933	0.0276459397755382	0.0303919267713422	0.0312505800975829	0.0304665502219672	0.0289849812884162	0.0320191354926529	0.0291328650350654	0.0277674127020173	0.0305302648577968	0.0318025629632186	0.0321656656477592	0.0325171331925685	0.0346998282663961	0.0306679883016164	0.02929412218258	0.0293660329749318	0.0298613011313301	0.029624855676563	0.0296264788140201	0.0296205979344967	0.0295596366534851	0.0284786672621873	0.0276976131719708	0.026549174180149	0.0243775298029734	0.0254151710961706	0.0274534821716195	0.0283121354978602	0.0275281056222445	0.026802177310317	0.0292156444966217	0.0271631255115819	0.0257976731785338	0.0285605253343133	0.0282451385336349	0.0293890698605199	0.0281168728858102	0.0309409445448341	0.0276167805004095	0.0256222273634411	0.0256941381557929	0.0261894063121912	0.0265736478753561	0.0259338944276168	0.0259280135480934	0.0252463652491498	0.0243515651036758	0.0248325746165877	0.0242611512289224	0.0215796714045715	0.0221011887968459	0.0252417552775077	0.0266447995645656	0.0250799410466056	0.0243540127346781	0.0267674799209828	0.0253563375211395	0.0246115722060234	0.0268645889146275	0.0270590375611245	0.0269948841867088	0.0259176478171393	0.0277911182493994	0.0254175554317386	0.0234230022947702	0.023494913087122	0.024338269097765
0.0339812975497864	0.0345227597087191	0.0321417919589815	0.0318323085726406	0.0350298801621892	0.0344814131167095	0.0370846698083705	0.0364403257383997	0.0347189071295605	0.0326587423309129	0.0327827479101106	0.0341045584623793	0.0361282454097726	0.034060460832101	0.0360864374085155	0.0369762455989181	0.0365385429022364	0.0336083099664463	0.0339877284596289	0.0329687800202635	0.0355483443223313	0.0358572832822383	0.0361216621576921	0.0361585168483357	0.0355552618197429	0.0339812975497864	0.0345227597087191	0.0308562794380585	0.0312316437165773	0.0339671443090552	0.0338807482606463	0.0351798725624079	0.0358396608823364	0.0332844908009496	0.0317140883141849	0.0321820830540473	0.0344238302773779	0.0355275805537093	0.0334597959760377	0.0363322425829636	0.0353032079695016	0.0354661701288831	0.0325359371930931	0.0329153556862756	0.0318964072469103	0.0339134342228002	0.034784910508885	0.0350492893843389	0.0350861440749824	0.0338415124611933	0.0315613213068704	0.032435923389539	0.0301935236333555	0.0305688879118744	0.032857223023316	0.0332179924559433	0.0334060206700611	0.0340658089899896	0.0315106389086027	0.0290786932335388	0.0304082311617005	0.0318691497426867	0.0339544134689947	0.0318866288913231	0.034138388480317	0.033730040884787	0.0338930030441685	0.0309627701083785	0.0317456087688498	0.0300189844091294	0.0327436873053743	0.0332597081254389	0.032037181261569	0.0320740359522125	0.0307289380093162	0.0282304555388269	0.0291050576214955	0.026862657865312	0.0272380221438308	0.0287950921375722	0.0305948026082548	0.0296759025353775	0.0300732255523674	0.0286803672007568	0.0277353272650165	0.0290648651931783	0.0296355224795885	0.0315342127517848	0.0297489826057096	0.0320007421947035	0.0315923945991735	0.0313081912775187	0.0283779583417287	0.0291965043662967	0.0279967099686575	0.0300137369445474	0.0303471723903911	0.0295050713739217	0.0309420228063165	0.03028177252828	0.0277832900577907	0.0279022515188357	0.0256598517626522	0.0256755252584515	0.0272325952521928	0.0281123690518137	0.0271934689789363	0.0265573863517634	0.0252208018953987	0.0248201529204758	0.0261496908486375	0.0255580271065483	0.026410135174496	0.0271119755191526	0.0288011977819686	0.029235413814291	0.0294780404547176	0.0274677441899893	0.0276014425496975	0.0258967443269536	0.0282741999777792	0.0286076354236228	0.0277655344071534	0.0290792943471248	0.0276121878053325	0.025920561598599	0.026039523059644	0.0237971233034605	0.0238127967992598	0.0232479545336236	0.0247484153511764	0.0240237263824593	0.0241729418226582	0.0226717463168537	0.0223129904928009	0.0237163633149446	0.0231246995728553	0.0232423615096323	0.0242459071973601	0.0248917698927216	0.024705298907112	0.0264491507889841	0.0244388545242558	0.024572552883964	0.0228678546612201	0.0252453103120457	0.0254214807618776	0.0256687470336673	0.0269825069736387	0.0259481412199459	0.0242565150132124	0.025418836041712	0.0237971233034605	0.0238127967992598	0.0232479545336236	0.0247484153511764	0.0232168701187034	0.0233660855589024	0.0218648900530978	0.021506134229045	0.0229095070511888	0.0223178433090995	0.0224355052458765	0.0229769799365335	0.023622842631895	0.0227515239814256	0.0237641107455975	0.0209930866846828	0.0222009799619055	0.0209896708815894	0.0210886054219217	0.0225230778777378	0.0227703441495275	0.0232352594810508	0.0230497383358062	0.0212576457999656	0.0225050307910032	0.0220456390812513	0.022107730029891
0.0256661724458131	0.0255028486353051	0.0247256637490578	0.0253030221338706	0.0261982512237506	0.0260978498456679	0.0260679247371688	0.0261300383718168	0.0237219422334887	0.0224177557764273	0.0202886179660406	0.0184340691612216	0.0206725521277183	0.0187273257393105	0.020139334536517	0.0187868496116733	0.0177545551838089	0.0195966488727938	0.0184614992905765	0.0188667716207426	0.0193994556341507	0.0220187834343975	0.0240653743911379	0.0263356639311557	0.024175049744201	0.0236677926187722	0.0240312987703454	0.0232541138840981	0.0233046423068296	0.0241998713967096	0.0240994700186269	0.0240695449101279	0.0241316585447759	0.0217235624064478	0.0197566201446834	0.0182902381389997	0.0170169779045644	0.018806705613698	0.0168614792252902	0.0173535513514349	0.0165278963886724	0.015495601960808	0.0160722195809939	0.0158352420860213	0.0162405144161875	0.0167731984295955	0.0188991370874145	0.0201566466028779	0.022953766104977	0.0221321684699613	0.0216249113445325	0.0229083541671675	0.0211052099328221	0.0208992271199469	0.0212676262477457	0.0211710975187226	0.0216874445441347	0.0212227282167014	0.0193414620404546	0.0181301604003137	0.0166637783946301	0.0153905181601948	0.0171802458693283	0.0152350194809206	0.0148933401345176	0.0161839072280076	0.0143447565363873	0.0149213741565733	0.0138057206666853	0.0147922815672352	0.0145693249590197	0.0159144349744944	0.016590655919574	0.0192613880717017	0.0191474663570411	0.0186402092316124	0.0199236520542473	0.0181205078199019	0.0187213812707826	0.0172957794277471	0.0178406272839205	0.0183569743093326	0.0186478986035228	0.0175474610696203	0.0163361594294795	0.0148697774237958	0.0130866817421851	0.0153862448984941	0.0134410185100863	0.0130993391636833	0.0143899062571734	0.014022602275619	0.0149213741565733	0.0138057206666853	0.0147922815672352	0.0145693249590197	0.0147072882089741	0.0151470714725267	0.0185986322669988	0.0184847105523382	0.0179774534269094	0.0192608962495444	0.017457752015199	0.0180586254660796	0.0166330236230442	0.0171778714792175	0.0170093708397699	0.0173002951339602	0.0168626134047606	0.0156513117646198	0.0141849297589361	0.0124018340773254	0.0147013972336344	0.0127561708452266	0.0124144914988236	0.0127321190704486	0.0126473695204906	0.0130840704043741	0.0121757912157061	0.0132345531497296	0.0128355803012964	0.0135548321216347	0.0139946153851872	0.0164638882453367	0.0163499665306761	0.014608203522811	0.0164184763075272	0.0153057171634505	0.0159065906143312	0.0149430597683665	0.0154879076245398	0.0153194069850922	0.0150835013172012	0.0151726495500829	0.0139613479099421	0.013477253838581	0.0116941581569704	0.0147013972336344	0.0127561708452266	0.0124144914988236	0.0127321190704486	0.0126473695204906	0.0124426938191777	0.0115344146305096	0.0125931765645332	0.0117754223082617	0.0129134555364382	0.0133532387999908	0.0158225116601403	0.0157085899454796	0.0139668269376146	0.0151143439176278	0.0137537624829989	0.0139873319523253	0.0140324816731113	0.0145773295292847	0.014408828889837	0.0135101674172431	0.0142620714548277	0.0126036043336507	0.0116574392652188	0.00956258139576787	0.0120575289222678	0.0115991120765674	0.0115052550207166	0.0113130471451662	0.0117381330423836	0.0115334573410707	0.0106251781524026	0.0116839400864262	0.0103727966877269	0.0109933192183428	0.0125158604968982	0.0149851333570477	0.014871211642387	0.013129448634522	0.0142769656145352	0.0129163841799063	0.0131499536492326
0.0239617922983485	0.023787113381125	0.02501116624762	0.0253102001378973	0.0257420437572342	0.0237521016162342	0.0217164107256545	0.0219728914627479	0.022746225367219	0.0203947653045039	0.0240555354123144	0.0236201211736427	0.0234220349546476	0.0232064962249298	0.0226611145711387	0.0212561006520078	0.0209295619874962	0.0217432860239452	0.0235383142761467	0.025174697897541	0.0248586408790689	0.0253317770733762	0.0226467767362047	0.0228903421122337	0.0228359404627279	0.0231442658352575	0.0234316579151047	0.0246557107815997	0.0240357156806027	0.0244675592999396	0.0229239020338478	0.0207973817343803	0.0210538624714736	0.0218271963759448	0.0198086290493569	0.0231365064210402	0.022345024299126	0.021861629378177	0.0222874672336555	0.0217420855798645	0.0212561006520078	0.021849498658558	0.0213510869947522	0.0235383142761467	0.025174697897541	0.0243652517366411	0.023506457957185	0.0214221224760767	0.0206681903485038	0.020804429938844	0.0204499995066706	0.0204152373257496	0.0216392901922446	0.0210192950912476	0.0214511387105845	0.0199074814444927	0.0177809611450252	0.0185308310245463	0.0200354300467177	0.0173754861349334	0.0209198974966668	0.020440177562593	0.0206195384463469	0.020905459565523	0.0208221489088027	0.0197736266547682	0.0203670246613183	0.0198686129975125	0.0220558402789071	0.0236922239003014	0.0222620907214695	0.0220239839599453	0.0208595851498988	0.0201056530223259	0.0202418926126661	0.0198874621804928	0.0190458437358159	0.0205914598551451	0.0210192950912476	0.0202297868365892	0.0193068165884294	0.0171802962889619	0.0174367770260553	0.0187035000729542	0.0167748212788701	0.0189430978043699	0.0184498687926238	0.019048011084216	0.0193339322033921	0.0188710740990657	0.0178225518450312	0.0190166147076446	0.0185182030438388	0.0195196627792196	0.0223418139466276	0.0209116807677957	0.0206735740062716	0.0204800377022927	0.0197261055747198	0.01986234516506	0.0195079147328867	0.0190458437358159	0.0205914598551451	0.0203986080733156	0.0196090998186572	0.0186861295704974	0.0165596092710299	0.0168160900081232	0.0180828130550222	0.0161541342609381	0.0183224107864379	0.0173964409865922	0.0176960589485838	0.0187132451854601	0.0182503870811337	0.0173898110569316	0.0183538589029416	0.018040729680199	0.0183794336108769	0.0208461293122645	0.0194159961334326	0.0191778893719085	0.0184030644975458	0.0171047414091557	0.0172755365131378	0.0167681857234368	0.016306114726366	0.0178517308456953	0.0171144881030485	0.0160216245696856	0.0157614101262287	0.0139903452927815	0.0138913705638546	0.0155135490767738	0.0141661588530735	0.0153888240086537	0.0144628542088081	0.0154252279755026	0.0164424142123789	0.0159795561080525	0.0147731097500918	0.0174082475330221	0.0165138297398957	0.0162899963443957	0.0182633029033556	0.0173265588669515	0.0170884521054273	0.0172592386009842	0.015960915512594	0.0156218751694007	0.0147590689136795	0.014652453382629	0.0147965538416819	0.0146799981169671	0.0134127825323644	0.014470746036709	0.0121898457560864	0.0115464800663421	0.0125059027745585	0.0118212683555611	0.0130439335111413	0.0126277991584711	0.0135901729251656	0.0146073591620419	0.0149253297000598	0.0137188833420991	0.0163540211250294	0.015459603331903	0.0157456053835784	0.0176626380472923	0.0167258940108882	0.0152212949887168	0.0161141827841037	0.0148158596957135	0.0138140635478172	0.012951257292096	0.0128446417610455	0.0129887422200984	0.0128721864953836
0.016369078455919	0.0151890122404763	0.0166018011127425	0.0167344892096973	0.015986067896602	0.0169872740721327	0.0154857346492916	0.0153531540872309	0.015945365852967	0.0160779978564632	0.0163280766116524	0.0149765391386245	0.0142240945694781	0.0145008292231029	0.0156560861712501	0.014225147102089	0.0140600969215986	0.0146922245973103	0.0139551002718326	0.015070220370371	0.0153604940192496	0.0155043570136873	0.0145379735376434	0.0147961811805377	0.0158807169588105	0.0151960507843816	0.0144081835981319	0.015441425022792	0.0159536605673529	0.0148134766447237	0.0160153676278865	0.0149913015686852	0.0143812476429847	0.0149734594087208	0.015106091412217	0.0153561701674063	0.0140046326943784	0.0128050226441957	0.0130817572978205	0.0142370142459677	0.0128060751768065	0.0123440041797358	0.0124253168053932	0.0116881924799155	0.0128033125784539	0.0130935862273325	0.0132374492217702	0.0118383249576267	0.0111729679109338	0.0133053340263061	0.0126206678518772	0.0114532532180214	0.0124864946426815	0.0138055864509982	0.013678288575494	0.0148801795586568	0.0138561134994555	0.013246059573755	0.0138382713394911	0.0139709033429873	0.0141428712472524	0.0127913337742245	0.0115917237240419	0.0122480058252728	0.011788682658528	0.0103577435893668	0.00989567259229605	0.00997698521795344	0.00923986089247576	0.0103549809910141	0.0106452546398928	0.0102957284919027	0.0102237448427347	0.0095583877960418	0.0110279981067111	0.0103433319322822	0.0107904974133184	0.0118237388379785	0.0131428306462952	0.013015532770791	0.0142174237539538	0.0131933576947525	0.012583303769052	0.0126311245739709	0.0128306741746446	0.0126645720393534	0.0127913337742245	0.0115917237240419	0.0122480058252728	0.011788682658528	0.0103577435893668	0.00989567259229605	0.00997698521795344	0.00923986089247576	0.00989290999394336	0.010183183642822	0.00983365749483191	0.00976167384566392	0.00909631679897102	0.0105659271096403	0.00988126093521142	0.0103284264162477	0.0105101456449698	0.0118292374532866	0.0112085504353545	0.0129038305609452	0.0123418354988146	0.0117317815731141	0.0112352114172157	0.0114347610178894	0.0112686588825982	0.0113954206174694	0.0101958105672867	0.00974864508625048	0.0101408441154435	0.00870990504628235	0.00824783404921157	0.00832914667486897	0.00759202234939128	0.00824507145085889	0.00907973606055483	0.00873020991256471	0.00865822626339672	0.00799286921670383	0.00868165088502876	0.00988126093521142	0.0103284264162477	0.0105101456449698	0.0118292374532866	0.0112085504353545	0.0129038305609452	0.0123418354988146	0.0111692442469363	0.0112352114172157	0.0114347610178894	0.0112686588825982	0.0109901482873033	0.0101958105672867	0.00974864508625048	0.0101408441154435	0.00870990504628235	0.00824783404921157	0.00832914667486897	0.00717324094155298	0.00824507145085889	0.00907973606055483	0.00823682077013692	0.00816483712096892	0.00749948007427603	0.00769487260017317	0.00889448265035582	0.00889448265035582	0.00862903639804177	0.00945574932668415	0.00929713330582291	0.0106595206952863	0.0100975256331558	0.0089249343812774	0.00948429069398464	0.00910255172427454	0.00923518372777075	0.00973261670649998	0.00893827898648343	0.00893827898648343	0.00933047801567643	0.00804411957402786	0.00758204857695709	0.00683117595999243	0.00621966118749372	0.00616096923169222	0.00684271348386059	0.00599979819344267	0.00543442540184688	0.00526245749758179	0.00545785002347892	0.00623867866582327	0.00623867866582327	0.00630612514963647	0.00675329063067271
0.0132965541470783	0.0122763350425693	0.0134445415898469	0.0130890861238266	0.0136895917986163	0.0120101428466607	0.011224057457268	0.0106124183743893	0.0100058445816177	0.00990791866558404	0.0104042619453452	0.00949404779360585	0.00833847959775689	0.00673366621491641	0.00726049617699764	0.0064477450957403	0.00588520776956245	0.00694539980252249	0.00789399235446059	0.00892441284517765	0.00993625896811531	0.010008460001589	0.0107739683708634	0.0100427834259611	0.0100735248200363	0.0132965541470783	0.0122763350425693	0.0134445415898469	0.0130890861238266	0.0132843194684502	0.0120101428466607	0.011224057457268	0.0106124183743893	0.0100058445816177	0.00990791866558404	0.010156439654793	0.00949404779360585	0.00833847959775689	0.00726049617699764	0.00726049617699764	0.0064477450957403	0.00588520776956245	0.00752668837290627	0.00752668837290627	0.00850563143733935	0.00951747756027701	0.0095896785937507	0.0103551869630251	0.00962400201812277	0.00965474341219799	0.0117080258218142	0.0113954826376602	0.0125636891849378	0.0122082337189175	0.0124034670635411	0.0111292904417516	0.0107619864601972	0.0101503473773185	0.00954377358454694	0.00944584766851327	0.00969436865772224	0.00903197679653507	0.00833847959775689	0.00726049617699764	0.00726049617699764	0.0064477450957403	0.00588520776956245	0.00752668837290627	0.00752668837290627	0.00850563143733935	0.00951747756027701	0.0095896785937507	0.0103551869630251	0.00962400201812277	0.00965474341219799	0.0110452700171112	0.0107327268329572	0.0107327268329572	0.0115454779142146	0.0117407112588381	0.0104665346370486	0.0100992306554943	0.00948759157261553	0.00888101777984397	0.0087830918638103	0.00903161285301928	0.0083692209918321	0.00833847959775689	0.00673366621491641	0.00673366621491641	0.00592091513365906	0.00535837780748121	0.00663255442927071	0.00663255442927071	0.00761149749370379	0.00862334361664144	0.00869554465011515	0.00946105301938953	0.00872986807448721	0.00876060946856243	0.0106779660355569	0.0103654228514029	0.0103654228514029	0.0111781739326603	0.0111781739326603	0.00990399731087075	0.00953669332931643	0.00892505424643767	0.00791320812350001	0.00822055453763245	0.00788778695645764	0.00780668366565425	0.00713456568638261	0.00552975230354213	0.00552975230354213	0.00436154575626448	0.00471700122228479	0.00599117784407429	0.00599117784407429	0.00697012090850737	0.00798196703144503	0.00805416806491873	0.00881967643419311	0.00808849148929079	0.00817932089817864	0.00987110977180106	0.0103654228514029	0.0103654228514029	0.0111781739326603	0.0111781739326603	0.00990399731087075	0.00953669332931643	0.00892505424643767	0.00791320812350001	0.00784100709002631	0.00745504616835806	0.00780668366565425	0.00662473023920722	0.00501991685636674	0.00501991685636674	0.00385171030908909	0.0042071657751094	0.0054813423968989	0.0054813423968989	0.00646028546133198	0.00718957715267325	0.00754433261774334	0.00830984098701772	0.0075786560421154	0.00817932089817864	0.00987110977180106	0.0103654228514029	0.0103654228514029	0.0111781739326603	0.0111781739326603	0.00990399731087075	0.00953669332931643	0.00892505424643767	0.00791320812350001	0.00784100709002631	0.00745504616835806	0.00780668366565425	0.00662473023920722	0.00501991685636674	0.00501991685636674	0.00385171030908909	0.0042071657751094	0.00438318201532708	0.0054813423968989	0.00584864637845322	0.00718957715267325	0.00754433261774334	0.00830984098701772	0.0075786560421154	0.00817932089817864	0.00927044491573782	0.0103654228514029	0.0103654228514029	0.0111781739326603
0.012183192983693	0.0127867418995254	0.0115839982100002	0.0124341714483618	0.0118133056603777	0.0115587200800955	0.0106857834900615	0.00980215171696746	0.0106004805724119	0.0106004805724119	0.00960083173940725	0.00843928780878262	0.00732748085128843	0.00670801615666799	0.00663581512319429	0.0074332864825534	0.00729386756467973	0.00769736817460372	0.00795195375488593	0.00915644101978465	0.00921513297558615	0.00841680412014171	0.00941645295314636	0.00964815557603881	0.0113780416534249	0.012183192983693	0.0127867418995254	0.0115839982100002	0.0118716341221839	0.0118133056603777	0.0115587200800955	0.0106857834900615	0.00980215171696746	0.0102209331248058	0.0106004805724119	0.00960083173940725	0.00843928780878262	0.00732748085128843	0.00600034023631294	0.0061424259807665	0.0074332864825534	0.00683179656760895	0.00705599158940731	0.00731057716968951	0.00808232364648865	0.00857375639038973	0.00777542753494529	0.00877507636794994	0.00900677899084239	0.0107366650682285	0.0115418163984966	0.012145365314329	0.010449232482376	0.0107368683945597	0.0113199165179499	0.0110653309376677	0.0101923943476337	0.00930876257453966	0.00930876257453966	0.0101070914299841	0.00910744259697945	0.00745250952392703	0.00634070256643283	0.00501356195145734	0.0056490368383387	0.0069398973401256	0.00633840742518116	0.00656260244697951	0.00681718802726172	0.00758893450406085	0.00808036724796193	0.00728203839251749	0.00828168722552215	0.00861457996164939	0.0107366650682285	0.0115418163984966	0.012145365314329	0.010449232482376	0.0103446693653667	0.0105886514002497	0.0110653309376677	0.0101923943476337	0.00930876257453966	0.00930876257453966	0.0101070914299841	0.00910744259697945	0.00745250952392703	0.00634070256643283	0.00501356195145734	0.0056490368383387	0.0069398973401256	0.00633840742518116	0.00656260244697951	0.00629035806518048	0.00706210454197962	0.0075535372858807	0.00675520843043626	0.00775485726344091	0.00808774999956815	0.00940979033649333	0.0103359202670207	0.0104619958192133	0.00924333635090014	0.00913877323389085	0.00938275526877381	0.0103862647682731	0.00951332817823913	0.00862969640514505	0.00862969640514505	0.00942802526058949	0.00842837642758484	0.00714074733608674	0.00634070256643283	0.00501356195145734	0.0056490368383387	0.0069398973401256	0.00511781765751786	0.00605276699980412	0.00578052261800509	0.00655226909480423	0.0065662284750655	0.00576789961962106	0.00676754845262571	0.00710044118875296	0.00842248152567814	0.00934861145620552	0.00947468700839815	0.00825602754008495	0.00866129987025105	0.00844321090806323	0.00944672040756248	0.00857378381752855	0.00816762540807427	0.00816762540807427	0.00896595426351871	0.00796630543051406	0.00667867633901596	0.00587863156936205	0.00455149095438656	0.00518696584126792	0.00607255401288872	0.00471254532735176	0.00564749466963801	0.00537525028783898	0.00576744931703199	0.00578140869729326	0.00498307984184882	0.00598272867485347	0.00598272867485347	0.00707512442172805	0.00800125435225543	0.00729357843190037	0.00648019129375327	0.00688546362391937	0.00666737466173155	0.00723814337313122	0.00717749501880301	0.00677133660934873	0.00677133660934873	0.00756966546479317	0.00657001663178852	0.00584492486646827	0.00504488009681436	0.00455149095438656	0.00518696584126792	0.00568035498369572	0.00432034629815875	0.00525529564044501	0.00498305125864598	0.00498305125864598	0.00538920966810026	0.00459088081265582	0.00529855673301088	0.00559052964566047	0.00631562141098072	0.00760905532306242	0.00690137940270737	0.00648019129375327	0.00688546362391937
0.00508348035962569	0.00463631487858946	0.00421753347075115	0.0034939968624802	0.0044425894144183	0.0044425894144183	0.00484786174458441	0.00494137188691022	0.00525615053095457	0.00560786820104866	0.00576292186691651	0.00567286772355123	0.00481559207056477	0.00640412039582891	0.00727006728470345	0.00764961473230958	0.00762629991142008	0.0070450113410363	0.00663973901087019	0.00663973901087019	0.00623145022450003	0.00550018510679981	0.00552427708838563	0.00560659705213213	0.00558264139663074	0.00455665039754446	0.00410948491650822	0.00369070350866991	0.00296716690039896	0.00391575945233707	0.00391575945233707	0.00391575945233707	0.00400926959466288	0.00505531335640745	0.00467576590880132	0.00483081957466917	0.00474076543130389	0.00511799566075372	0.0059988480656628	0.00686479495453735	0.00686479495453735	0.00722102758125398	0.00663973901087019	0.00663973901087019	0.00663973901087019	0.00623145022450003	0.00550018510679981	0.00552427708838563	0.00560659705213213	0.00558264139663074	0.00455665039754446	0.00410948491650822	0.00369070350866991	0.00296716690039896	0.00391575945233707	0.00391575945233707	0.00391575945233707	0.00400926959466288	0.00465004102624135	0.00427049357863522	0.00442554724450307	0.00387342210406701	0.00425065233351683	0.00471272333058761	0.00557867021946216	0.00557867021946216	0.00593490284617878	0.005353614275795	0.005353614275795	0.005353614275795	0.00535059781959094	0.00461933270189072	0.00426387723587041	0.00480826819668769	0.0047843125411863	0.00417710294993832	0.00372993746890209	0.00331115606106378	0.00258761945279283	0.00258761945279283	0.00316890802317661	0.00316890802317661	0.00326241816550243	0.00360148425400965	0.00360148425400965	0.00341254875921268	0.00320441277944144	0.00358164300889126	0.00404371400596204	0.00490966089483659	0.00490966089483659	0.00563319750310754	0.00505190893272375	0.00505190893272375	0.00505190893272375	0.00503883563175065	0.00430757051405043	0.00395211504803012	0.0044965060088474	0.00447255035334601	0.00386534076209803	0.0034181752810618	0.00299939387322349	0.00227585726495254	0.00227585726495254	0.00285714583533632	0.00285714583533632	0.00326241816550243	0.00360148425400965	0.00360148425400965	0.00341254875921268	0.00320441277944144	0.00358164300889126	0.00358164300889126	0.00444758989776581	0.00444758989776581	0.00517112650603676	0.00458983793565297	0.00458983793565297	0.00458983793565297	0.00457676463467987	0.00384549951697965	0.00349004405095934	0.00349004405095934	0.00303334760735837	0.00232567168700332	0.00187850620596708	0.00145972479812877	0.000736188189857822	0.000736188189857822	0.0013174767602416	0.0013174767602416	0.0013174767602416	0.00206181517891493	0.00206181517891493	0.00241727064493524	0.00264187545326359	0.00358164300889126	0.00358164300889126	0.00400042441672957	0.00400042441672957	0.00472396102500052	0.00414267245461674	0.00414267245461674	0.00414267245461674	0.00412959915364364	0.00339833403594341	0.0030428785699231	0.0030428785699231	0.00258618212632213	0.00187850620596708	0.00187850620596708	0.00145972479812877	0.000736188189857822	0.000736188189857822	0.0013174767602416	0.0013174767602416	0.0013174767602416	0.00206181517891493	0.00206181517891493	0.00206181517891493	0.00228641998724327	0.00299409590759833	0.00299409590759833	0.00341287731543664	0.00341287731543664	0.00379242476304277	0.00321113619265899	0.00321113619265899	0.00321113619265899	0.00319806289168589	0.00246679777398566	0.00246679777398566	0.00246679777398566	0.00224219296565732	0.00153451704530226	0.00153451704530226	0.00111573563746395	0.000736188189857822
0.00609093245183883	0.0058342567564404	0.00477833028783475	0.00539901730576677	0.00450963441098525	0.00528529719447758	0.00528529719447758	0.00528529719447758	0.00450856724571318	0.00510923210177642	0.00392346455576273	0.00357947539509791	0.0033888341552519	0.00345011732475318	0.00394350646718098	0.00388535677542682	0.00477473967020834	0.00461976390464802	0.003999076886716	0.003999076886716	0.00443181767481559	0.00417514197941716	0.00481651856461358	0.00570489868609568	0.00570489868609568	0.00549026759577559	0.0058342567564404	0.00477833028783475	0.00539901730576677	0.00450963441098525	0.00452965657285402	0.00452965657285402	0.00452965657285402	0.00375292662408962	0.00435359148015286	0.00316782393413916	0.00282383477347435	0.00263319353362833	0.00269447670312962	0.00318786584555742	0.00312971615380325	0.00401909904858478	0.00401909904858478	0.003999076886716	0.003999076886716	0.00443181767481559	0.00417514197941716	0.00417514197941716	0.00536090952543086	0.00570489868609568	0.00529962635592957	0.00564361551659439	0.00458768904798874	0.00520837606592075	0.00431899317113923	0.00371832831507599	0.004339015333008	0.004339015333008	0.0035622853842436	0.0035622853842436	0.00237651783822991	0.00203252867756509	0.00203252867756509	0.00209381184706638	0.00258720098949417	0.00252905129774001	0.00341843419252153	0.00341843419252153	0.00339841203065276	0.00339841203065276	0.00383115281875234	0.00417514197941716	0.00417514197941716	0.00536090952543086	0.00570489868609568	0.00529962635592957	0.00529962635592957	0.00424369988732392	0.00486438690525594	0.00397500401047441	0.00337433915441117	0.00399502617234319	0.00399502617234319	0.00321829622357879	0.00321829622357879	0.00203252867756509	0.00168853951690027	0.00168853951690027	0.00209381184706638	0.00258720098949417	0.00252905129774001	0.00290859874534614	0.00341843419252153	0.00339841203065276	0.00339841203065276	0.00383115281875234	0.00417514197941716	0.00417514197941716	0.00536090952543086	0.00570489868609568	0.00529962635592957	0.00529962635592957	0.00424369988732392	0.00486438690525594	0.00397500401047441	0.00337433915441117	0.00399502617234319	0.00399502617234319	0.00321829622357879	0.00321829622357879	0.00203252867756509	0.00168853951690027	0.00168853951690027	0.00168853951690027	0.00218192865932807	0.00156124164139605	0.00194078908900218	0.00245062453617758	0.0024306023743088	0.0024306023743088	0.00286334316240838	0.0032073323230732	0.0032073323230732	0.0043930998690869	0.00473708902975172	0.00473708902975172	0.00473708902975172	0.00424369988732392	0.00486438690525594	0.00397500401047441	0.00337433915441117	0.00399502617234319	0.00399502617234319	0.00321829622357879	0.00321829622357879	0.00203252867756509	0.00168853951690027	0.00168853951690027	0.00168853951690027	0.00168853951690027	0.00156124164139605	0.00194078908900218	0.00245062453617758	0.0024306023743088	0.0024306023743088	0.00286334316240838	0.0032073323230732	0.0032073323230732	0.00384870890826962	0.00419269806893444	0.00419269806893444	0.00419269806893444	0.0032521434454704	0.0032521434454704	0.00236276055068888	0.00176209569462564	0.00238278271255765	0.00238278271255765	0.00160605276379325	0.00160605276379325	0.000964676178596835	0.000620687017932017	0.000620687017932017	0.000620687017932017	0.00106785249896825	0.00156124164139605	0.00194078908900218	0.00245062453617758	0.0024306023743088	0.0024306023743088	0.0024306023743088	0.00286334316240838	0.00286334316240838	0.0035047197476048	0.00384870890826962	0.00384870890826962	0.00384870890826962	0.00290815428480559	0.00290815428480559
0.00557189916683014	0.00504840900528818	0.00526399932895491	0.00561945479497522	0.00523174346354516	0.00482647113337905	0.00535330109546029	0.00477201252507651	0.00517728485524261	0.00565475821888242	0.00565475821888242	0.0045835372959839	0.00511036725806514	0.00562020270524053	0.00522858508944099	0.00501299476577426	0.00506281162992006	0.00545052296135012	0.00545052296135012	0.00550498156965266	0.00550498156965266	0.00509970923948656	0.00462223587584676	0.00462223587584676	0.00516662683666403	0.00557189916683014	0.00481631737001556	0.00526399932895491	0.00561945479497522	0.00468735250272788	0.00482647113337905	0.00535330109546029	0.00477201252507651	0.00517728485524261	0.00565475821888242	0.00565475821888242	0.0045835372959839	0.00511036725806514	0.00511036725806514	0.00522858508944099	0.00501299476577426	0.00506281162992006	0.00545052296135012	0.00545052296135012	0.00550498156965266	0.00550498156965266	0.00509970923948656	0.00462223587584676	0.00462223587584676	0.00516662683666403	0.00557189916683014	0.00481631737001556	0.00526399932895491	0.00561945479497522	0.00468735250272788	0.00482647113337905	0.00535330109546029	0.00477201252507651	0.00517728485524261	0.00565475821888242	0.00565475821888242	0.0045835372959839	0.0045835372959839	0.0045835372959839	0.00470175512735975	0.00448616480369303	0.00453598166783882	0.00492369299926888	0.00492369299926888	0.00497815160757143	0.00497815160757143	0.00457287927740532	0.00409540591376552	0.00409540591376552	0.0046397968745828	0.0050450692047489	0.00428948740793432	0.00473716936687367	0.00509262483289399	0.00416052254064664	0.00429964117129782	0.00482647113337905	0.00424518256299527	0.00465045489316138	0.00512792825680118	0.00512792825680118	0.0045835372959839	0.0045835372959839	0.0045835372959839	0.00470175512735975	0.00448616480369303	0.00453598166783882	0.00492369299926888	0.00492369299926888	0.00497815160757143	0.00497815160757143	0.00457287927740532	0.00409540591376552	0.00409540591376552	0.0046397968745828	0.0050450692047489	0.00428948740793432	0.00473716936687367	0.00509262483289399	0.00416052254064664	0.00385247569026158	0.00429964117129782	0.00424518256299527	0.00465045489316138	0.00512792825680118	0.00512792825680118	0.0045835372959839	0.0045835372959839	0.0045835372959839	0.00470175512735975	0.00448616480369303	0.00453598166783882	0.00492369299926888	0.00492369299926888	0.00497815160757143	0.00497815160757143	0.00457287927740532	0.00409540591376552	0.00409540591376552	0.00409540591376552	0.00409540591376552	0.00374509644711704	0.00353002260135343	0.00419277840605639	0.00361613157982937	0.0033080847294443	0.00375525021048054	0.00370079160217799	0.0041060639323441	0.0045835372959839	0.0045835372959839	0.0045835372959839	0.0045835372959839	0.0041782649658178	0.00470175512735975	0.00448616480369303	0.00453598166783882	0.00492369299926888	0.00447652751823264	0.00394969755615141	0.00453098612653519	0.00412571379636909	0.00364824043272928	0.00364824043272928	0.00364824043272928	0.00364824043272928	0.00277110100399957	0.00308285712031719	0.00374561292502016	0.00316896609879313	0.0033080847294443	0.00375525021048054	0.00370079160217799	0.00370079160217799	0.0045835372959839	0.0045835372959839	0.0045835372959839	0.0045835372959839	0.0041782649658178	0.00433445114580543	0.00367169534110247	0.00372151220524826	0.00358239357459709	0.00313522809356085	0.00260839813147961	0.00318968670186339	0.00278441437169729	0.00230694100805749	0.00230694100805749	0.00230694100805749	0.00230694100805749	0.00179710556088209	0.00232393552296333	0.0029866913276663
0.00437276215258218	0.00437276215258218	0.00437276215258218	0.00421781513915885	0.00421781513915885	0.00421781513915885	0.00421781513915885	0.00304211187992166	0.00379137337075258	0.00475604954934942	0.00511150501536973	0.00295935983036767	0.00260390436434736	0.00306597536141814	0.00306597536141814	0.00289876811407317	0.00322092237484147	0.00322092237484147	0.00322092237484147	0.00440847414961267	0.00439662563407866	0.00330337498258292	0.00232723249863059	0.0034734404974033	0.00483483314965296	0.00437276215258218	0.00437276215258218	0.00437276215258218	0.00421781513915885	0.00421781513915885	0.00421781513915885	0.00421781513915885	0.00304211187992166	0.00373009020125129	0.00475604954934942	0.00511150501536973	0.00295935983036767	0.00260390436434736	0.00306597536141814	0.00306597536141814	0.00289876811407317	0.00322092237484147	0.00322092237484147	0.00322092237484147	0.00440847414961267	0.00439662563407866	0.00330337498258292	0.00232723249863059	0.0034734404974033	0.00483483314965296	0.00437276215258218	0.00437276215258218	0.00437276215258218	0.00421781513915885	0.00421781513915885	0.00421781513915885	0.00421781513915885	0.00304211187992166	0.00373009020125129	0.00475604954934942	0.00511150501536973	0.00295935983036767	0.00260390436434736	0.00306597536141814	0.00306597536141814	0.00289876811407317	0.00322092237484147	0.00322092237484147	0.00322092237484147	0.00417638251434004	0.00439662563407866	0.00330337498258292	0.00232723249863059	0.0030681681672372	0.00483483314965296	0.00437276215258218	0.00437276215258218	0.00437276215258218	0.00421781513915885	0.00421781513915885	0.00421781513915885	0.00421781513915885	0.00304211187992166	0.00338610104058648	0.00475604954934942	0.00511150501536973	0.00295935983036767	0.00260390436434736	0.00306597536141814	0.00306597536141814	0.00289876811407317	0.00322092237484147	0.00322092237484147	0.00322092237484147	0.00371431151726927	0.00404117016805835	0.00294791951656261	0.00197177703261028	0.00271271270121688	0.0038787128275694	0.00341664183049863	0.00341664183049863	0.00341664183049863	0.00326169481707529	0.00326169481707529	0.00326169481707529	0.00326169481707529	0.00244144702385842	0.00278543618452323	0.00415538469328617	0.00415538469328617	0.00260390436434736	0.00224844889832705	0.00271051989539783	0.00271051989539783	0.00254331264805286	0.00286546690882116	0.00286546690882116	0.00286546690882116	0.00335885605124895	0.00368571470203803	0.00259246405054229	0.00197177703261028	0.00229393129337858	0.0038787128275694	0.00341664183049863	0.00341664183049863	0.00341664183049863	0.00326169481707529	0.00326169481707529	0.00326169481707529	0.00326169481707529	0.00244144702385842	0.00278543618452323	0.00415538469328617	0.00415538469328617	0.00260390436434736	0.00224844889832705	0.00271051989539783	0.00271051989539783	0.00254331264805286	0.00286546690882116	0.00286546690882116	0.00286546690882116	0.00335885605124895	0.00368571470203803	0.00259246405054229	0.00197177703261028	0.00229393129337858	0.00352325736154909	0.00341664183049863	0.00341664183049863	0.00341664183049863	0.00309448756973033	0.00309448756973033	0.00309448756973033	0.00309448756973033	0.00190693579495913	0.00261822893717827	0.00336749042800919	0.0039881774459412	0.00243669711700239	0.00208124165098208	0.00208124165098208	0.00208124165098208	0.00208124165098208	0.00208124165098208	0.00208124165098208	0.00208124165098208	0.00257463079340988	0.00290148944419896	0.00180823879270322	0.0011875517747712	0.0015097060355395	0.00233375977354391	0.00268921523956422	0.00268921523956422	0.00268921523956422	0.00268921523956422
0.00244597146244288	0.00244597146244288	0.0030873480476393	0.0030873480476393	0.0030873480476393	0.00256051808555806	0.00256051808555806	0.00203368812347682	0.00150685816139559	0.00150685816139559	0.00150685816139559	0.00200024730382338	0.00166159568970545	0.00210876117074169	0.00210876117074169	0.00146738458554527	0.00146738458554527	0.00146738458554527	0.00199421454762651	0.00199421454762651	0.00199421454762651	0.00252104450970775	0.00252104450970775	0.00202765536727995	0.0019335661932983	0.00191914150036164	0.00191914150036164	0.00256051808555806	0.00256051808555806	0.00256051808555806	0.00203368812347682	0.00203368812347682	0.00203368812347682	0.00150685816139559	0.00150685816139559	0.00150685816139559	0.00200024730382338	0.00210876117074169	0.00210876117074169	0.00210876117074169	0.00146738458554527	0.00146738458554527	0.00146738458554527	0.00199421454762651	0.00199421454762651	0.00199421454762651	0.00252104450970775	0.00252104450970775	0.00202765536727995	0.0019335661932983	0.00148640071226206	0.00148640071226206	0.00212777729745848	0.00212777729745848	0.00212777729745848	0.00160094733537724	0.00160094733537724	0.00160094733537724	0.001074117373296	0.001074117373296	0.001074117373296	0.0015675065157238	0.00210876117074169	0.00210876117074169	0.00210876117074169	0.00146738458554527	0.00146738458554527	0.00146738458554527	0.00146738458554527	0.00146738458554527	0.00146738458554527	0.00199421454762651	0.00199421454762651	0.00150082540519871	0.00140673623121706	0.000959570750180822	0.000959570750180822	0.00160094733537724	0.00160094733537724	0.00160094733537724	0.00160094733537724	0.00160094733537724	0.00160094733537724	0.001074117373296	0.001074117373296	0.001074117373296	0.0015675065157238	0.00210876117074169	0.00210876117074169	0.00210876117074169	0.00146738458554527	0.00146738458554527	0.00146738458554527	0.00146738458554527	0.00146738458554527	0.00146738458554527	0.00199421454762651	0.00199421454762651	0.00150082540519871	0.00140673623121706	0.000959570750180822	0.000959570750180822	0.00160094733537724	0.00160094733537724	0.00160094733537724	0.00160094733537724	0.00160094733537724	0.00160094733537724	0.001074117373296	0.001074117373296	0.001074117373296	0.001074117373296	0.00161537202831389	0.00161537202831389	0.00161537202831389	0.000973995443117474	0.000973995443117474	0.000973995443117474	0.000973995443117474	0.000973995443117474	0.000973995443117474	0.000973995443117474	0.000973995443117474	0.000973995443117474	0.000447165481036237	0.000432740788099584	0.000432740788099584	0.001074117373296	0.001074117373296	0.001074117373296	0.001074117373296	0.001074117373296	0.001074117373296	0.001074117373296	0.001074117373296	0.001074117373296	0.001074117373296	0.00108854206623265	0.00108854206623265	0.00108854206623265	0.000447165481036237	0.000447165481036237	0.000447165481036237	0.000447165481036237	0.000447165481036237	0.000447165481036237	0.000447165481036237	0.000447165481036237	0.000447165481036237	0.000447165481036237	0.000432740788099584	0.000432740788099584	0.001074117373296	0.001074117373296	0.001074117373296	0.001074117373296	0.001074117373296	0.001074117373296	0.001074117373296	0.001074117373296	0.001074117373296	0.001074117373296	0.00108854206623265	0.00108854206623265	0.00108854206623265	0.000447165481036237	0.000447165481036237	0.000447165481036237	0.000447165481036237	0.000447165481036237	0.000447165481036237	0.000447165481036237	0.000447165481036237	0.000447165481036237	0.000447165481036237	0.000432740788099584	0.000432740788099584	0.001074117373296	0.001074117373296
0.00111533869338102	0.00111533869338102	0.00176276707205092	0.00225615621447872	0.00262346019603304	0.00262346019603304	0.00262346019603304	0.00226800473001273	0.00226800473001273	0.00226800473001273	0.00265264690647749	0.00275533175334217	0.00232259096524259	0.00232259096524259	0.00203061805259299	0.00167516258657268	0.000814469462590559	0.000814469462590559	0.000814469462590559	0.00116992492861087	0.00116992492861087	0.00116992492861087	0.00116992492861087	0.000987378582264274	0.000620074600709952	0.00105281538880954	0.00105281538880954	0.00170024376747944	0.00219363290990724	0.00256093689146156	0.00256093689146156	0.00256093689146156	0.00220548142544125	0.00220548142544125	0.00220548142544125	0.00265264690647749	0.00275533175334217	0.00232259096524259	0.00232259096524259	0.00203061805259299	0.00167516258657268	0.000814469462590559	0.000814469462590559	0.000814469462590559	0.00116992492861087	0.00116992492861087	0.00116992492861087	0.00116992492861087	0.000987378582264274	0.000620074600709952	0.00105281538880954	0.00105281538880954	0.00170024376747944	0.00219363290990724	0.00256093689146156	0.00256093689146156	0.00256093689146156	0.00220548142544125	0.00220548142544125	0.00220548142544125	0.00265264690647749	0.00275533175334217	0.00232259096524259	0.00232259096524259	0.00203061805259299	0.00167516258657268	0.000814469462590559	0.000814469462590559	0.000814469462590559	0.00116992492861087	0.00116992492861087	0.00116992492861087	0.00116992492861087	0.000987378582264274	0.000620074600709952	0.000620074600709952	0.000620074600709952	0.00126750297937986	0.00176089212180766	0.00176089212180766	0.00176089212180766	0.00176089212180766	0.00140543665578734	0.00140543665578734	0.00140543665578734	0.00185260213682358	0.00195528698368826	0.00195528698368826	0.00195528698368826	0.00166331407103867	0.00130785860501836	0.000814469462590559	0.000814469462590559	0.000814469462590559	0.00116992492861087	0.00116992492861087	0.00116992492861087	0.00116992492861087	0.000987378582264274	0.000620074600709952	0.000620074600709952	0.000620074600709952	0.000975530066730263	0.00146891920915806	0.00146891920915806	0.00146891920915806	0.00146891920915806	0.00111346374313775	0.00111346374313775	0.00111346374313775	0.00156062922417399	0.00166331407103867	0.00166331407103867	0.00166331407103867	0.00166331407103867	0.00130785860501836	0.000814469462590559	0.000814469462590559	0.000814469462590559	0.00116992492861087	0.00116992492861087	0.00116992492861087	0.00116992492861087	0.000722759447574634	0.000620074600709952	0.000620074600709952	0.000620074600709952	0.000975530066730263	0.00146891920915806	0.00146891920915806	0.00146891920915806	0.00146891920915806	0.00111346374313775	0.00111346374313775	0.00111346374313775	0.00156062922417399	0.00166331407103867	0.00166331407103867	0.00166331407103867	0.00166331407103867	0.00130785860501836	0.000814469462590559	0.000814469462590559	0.000814469462590559	0.00116992492861087	0.00116992492861087	0.00116992492861087	0.00116992492861087	0.000722759447574634	0.000620074600709952	0.000620074600709952	0.000620074600709952	0.000620074600709952	0.000975530066730263	0.00146891920915806	0.00146891920915806	0.00146891920915806	0.00111346374313775	0.00111346374313775	0.00111346374313775	0.00156062922417399	0.00166331407103867	0.00166331407103867	0.00166331407103867	0.00166331407103867	0.00130785860501836	0.000814469462590559	0.000814469462590559	0.000814469462590559	0.000814469462590559	0.00116992492861087	0.00116992492861087	0.00116992492861087	0.000722759447574634	0.000620074600709952	0.000620074600709952	0.000620074600709952	0.000620074600709952	0.000975530066730263
0.00168236056655707	0.00168236056655707	0.00214443156362785	0.00177712758207353	0.00232151854289081	0.00232151854289081	0.00213702702045918	0.00213702702045918	0.00161019705837794	0.00181375953781352	0.00181375953781352	0.00181375953781352	0.00181375953781352	0.00121002443732364	0.00121002443732364	0.00111525742180718	0.000570866460989901	0.000570866460989901	0.000755357983421528	0.000755357983421528	0.00128218794550277	0.00128218794550277	0.00107862546606719	0.00107862546606719	0.00107862546606719	0.00168236056655707	0.00168236056655707	0.00214443156362785	0.00177712758207353	0.00177712758207353	0.00177712758207353	0.0015926360596419	0.0015926360596419	0.00106580609756066	0.00126936857699624	0.00126936857699624	0.00126936857699624	0.00126936857699624	0.000665633476506357	0.000665633476506357	0.000570866460989901	0.000570866460989901	0.000570866460989901	0.000755357983421528	0.000755357983421528	0.00128218794550277	0.00128218794550277	0.00107862546606719	0.00107862546606719	0.00107862546606719	0.00168236056655707	0.00168236056655707	0.00168236056655707	0.00177712758207353	0.00177712758207353	0.00177712758207353	0.0015926360596419	0.0015926360596419	0.00106580609756066	0.00126936857699624	0.00126936857699624	0.00126936857699624	0.00126936857699624	0.000665633476506357	0.000665633476506357	0.000570866460989901	0.000570866460989901	0.000570866460989901	0.000755357983421528	0.000755357983421528	0.00128218794550277	0.00128218794550277	0.00107862546606719	0.00107862546606719	0.00107862546606719	0.00168236056655707	0.00168236056655707	0.00168236056655707	0.00177712758207353	0.00177712758207353	0.00177712758207353	0.0015926360596419	0.0015926360596419	0.00106580609756066	0.00126936857699624	0.00126936857699624	0.00126936857699624	0.00126936857699624	0.000665633476506357	0.000665633476506357	0.000570866460989901	0.000570866460989901	0.000570866460989901	0.000755357983421528	0.000755357983421528	0.00128218794550277	0.00128218794550277	0.00107862546606719	0.00107862546606719	0.00107862546606719	0.00168236056655707	0.00168236056655707	0.00168236056655707	0.00177712758207353	0.00177712758207353	0.00177712758207353	0.0015926360596419	0.0015926360596419	0.00106580609756066	0.00126936857699624	0.00126936857699624	0.00126936857699624	0.00126936857699624	0.000665633476506357	0.000665633476506357	0.000570866460989901	0.000570866460989901	0.000570866460989901	0.000755357983421528	0.000755357983421528	0.00128218794550277	0.00128218794550277	0.00107862546606719	0.00107862546606719	0.00107862546606719	0.00168236056655707	0.00168236056655707	0.00168236056655707	0.00177712758207353	0.00177712758207353	0.00177712758207353	0.0015926360596419	0.0015926360596419	0.00106580609756066	0.00126936857699624	0.00126936857699624	0.00126936857699624	0.00126936857699624	0.000665633476506357	0.000665633476506357	0.000570866460989901	0.000570866460989901	0.000570866460989901	0.000755357983421528	0.000755357983421528	0.00128218794550277	0.00128218794550277	0.00107862546606719	0.00107862546606719	0.00107862546606719	0.00168236056655707	0.00168236056655707	0.00168236056655707	0.00177712758207353	0.00177712758207353	0.00177712758207353	0.0015926360596419	0.0015926360596419	0.00106580609756066	0.00106580609756066	0.00126936857699624	0.00126936857699624	0.00126936857699624	0.000665633476506357	0.000665633476506357	0.000570866460989901	0.000570866460989901	0.000570866460989901	0.000755357983421528	0.000755357983421528	0.00128218794550277	0.00128218794550277	0.00107862546606719	0.00107862546606719	0.00107862546606719	0.00168236056655707	0.00168236056655707	0.00168236056655707	0.00177712758207353
0.00137010463846641	0.00137010463846641	0.00105834245062612	0.00105834245062612	0.00105834245062612	0.00105834245062612	0.00122015591579867	0.000554012494365554	0.000554012494365554	0.000505802625837368	0.000505802625837368	0.000505802625837368	0.000505802625837368	0.000505802625837368	0.000505802625837368	0.000817564813677657	0.000817564813677657	0.000817564813677657	0.000655751348505108	0.000999740509169925	0.00132189476993822	0.00132189476993822	0.00137010463846641	0.00137010463846641	0.00137010463846641	0.00137010463846641	0.00137010463846641	0.00105834245062612	0.00105834245062612	0.00105834245062612	0.00105834245062612	0.00122015591579867	0.000554012494365554	0.000554012494365554	0.000505802625837368	0.000505802625837368	0.000505802625837368	0.000505802625837368	0.000505802625837368	0.000505802625837368	0.000817564813677657	0.000817564813677657	0.000817564813677657	0.000655751348505108	0.000999740509169925	0.00132189476993822	0.00132189476993822	0.000977905609273407	0.000977905609273407	0.000977905609273407	0.000977905609273407	0.000977905609273407	0.000666143421433117	0.000666143421433117	0.000666143421433117	0.000666143421433117	0.000827956886605667	0.00016181346517255	0.00016181346517255	0.000505802625837368	0.000505802625837368	0.000505802625837368	0.000505802625837368	0.000505802625837368	0.000505802625837368	0.000505802625837368	0.000505802625837368	0.000505802625837368	0.000343989160664818	0.000687978321329635	0.000687978321329635	0.000687978321329635	0.000343989160664818	0.000343989160664818	0.000343989160664818	0.000343989160664818	0.000343989160664818	0.000343989160664818	0.000343989160664818	0.000343989160664818	0.000343989160664818	0.000343989160664818	0	0	0.000343989160664818	0.000343989160664818	0.000343989160664818	0.000343989160664818	0.000343989160664818	0.000343989160664818	0.000343989160664818	0.000343989160664818	0.000343989160664818	0.000343989160664818	0.000687978321329635	0.000687978321329635	0.000687978321329635	0.000343989160664818	0.000343989160664818	0.000343989160664818	0.000343989160664818	0.000343989160664818	0.000343989160664818	0.000343989160664818	0.000343989160664818	0.000343989160664818	0.000343989160664818	0	0	0.000343989160664818	0.000343989160664818	0.000343989160664818	0.000343989160664818	0.000343989160664818	0.000343989160664818	0.000343989160664818	0.000343989160664818	0.000343989160664818	0.000343989160664818	0.000687978321329635	0.000687978321329635	0.000687978321329635	0.000343989160664818	0.000343989160664818	0.000343989160664818	0.000343989160664818	0.000343989160664818	0.000343989160664818	0.000343989160664818	0.000343989160664818	0.000343989160664818	0.000343989160664818	0	0	0.000343989160664818	0.000343989160664818	0.000343989160664818	0.000343989160664818	0.000343989160664818	0.000343989160664818	0.000343989160664818	0.000343989160664818	0.000343989160664818	0.000343989160664818	0.000343989160664818	0.000687978321329635	0.000687978321329635	0.000343989160664818	0.000343989160664818	0.000343989160664818	0.000343989160664818	0.000343989160664818	0.000343989160664818	0.000343989160664818	0.000343989160664818	0.000343989160664818	0.000343989160664818	0	0	0	0.000343989160664818	0.000343989160664818	0.000343989160664818	0.000343989160664818	0.000343989160664818	0.000343989160664818	0.000343989160664818	0.000343989160664818	0.000343989160664818	0.000343989160664818	0.000687978321329635	0.000687978321329635	0.000343989160664818	0.000343989160664818	0.000343989160664818	0.000343989160664818	0.000343989160664818	0.000343989160664818	0.000343989160664818
