1.23913379208603	1.22836719785941	1.23480309452117	1.23747900955408	1.22481614295175	1.20454161307096	1.20979642393249	1.20294108493869	1.20168616881778	1.19894105577782	1.19663390611063	1.20172633300058	1.2037126398531	1.20130858304517	1.19982143998239	1.19617055197446	1.20145291451364	1.1845867643718	1.18064168550486	1.18246166763875	1.16900767942042	1.17068744520639	1.1678463046673	1.17140807286062	1.16979509525603	1.15570196716956	1.16037094016856	1.15196442016815	1.16048535857188	1.15949598868122	1.16700166484899	1.14848299846732	1.15070239294714	1.16371050220704	1.16118079732514	1.16170419680632	1.16330030640376	1.16672904117653	1.16028145550362	1.16016500518397	1.1546792696561	1.157322681945	1.16109872058723	1.17100594052717	1.18066137089714	1.18657045598795	1.18674855615854	1.19932423714686	1.2079330585804	1.19540190539977	1.18450777432488	1.18275903486818	1.17667182796992	1.17570413245325	1.18703622990753	1.19834459640291	1.18074692822745	1.19049264235446	1.18065081973934	1.16414130202394	1.16333929923522	1.158072115891	1.13757402706466	1.13999535871308	1.13494887054713	1.13231063495609	1.1285215402041	1.13197332934942	1.13345222209334	1.13966249377026	1.13448654808909	1.12746966833499	1.12751191238188	1.11581378575035	1.1094925316348	1.11150742953222	1.10680842695634	1.09525317938949	1.095001815912	1.08594138892274	1.08720291586436	1.08621856424536	1.07445296871676	1.0728026415682	1.07449697969124	1.06796811159111	1.05315072379982	1.04139748502523	1.03964626019726	1.03154170520948	1.03023773098103	1.03722799674532	1.02592715617898	1.02355934027278	0.997553692712784	0.983808691540478	0.969517968919076	0.957816246739472	0.951305584805692	0.961641670940598	0.959776037964627	0.954375404665762	0.946383664148069	0.935636276998041	0.933645338878212	0.917589470596755	0.913432003611472	0.917290734743887	0.92404539835369	0.914628963787469	0.917599130010508	0.918715300830849	0.918828532115663	0.911869854486304	0.907551525511896	0.905087572718424	0.896793605216444	0.880774170263407	0.878812944974149	0.873156583189795	0.870679363760363	0.873848514473205	0.875628958506592	0.880152637935587	0.880221458359705	0.869017665772665	0.868956856216134	0.863710885881467	0.868771726329975	0.863102131799218	0.869339377213212	0.858713004953771	0.865938056227751	0.868198928690895	0.860272374574439	0.866841387969316	0.866451938202262	0.864133136076254	0.857648018471316	0.858015903249074	0.842024680095231	0.838401505134448	0.840640205108349	0.840467685999501	0.851890840713083	0.850240890203876	0.853078979255391	0.859643565388937	0.859734954562113	0.85317626438689	0.835285226302237	0.833029554409729	0.828258158394667	0.827601606842531	0.828143435729463	0.832430009113476	0.82296314551406	0.820311597278541	0.822827460381252	0.809577608296161	0.805154686720233	0.798265351584438	0.79005914228804	0.787334341143711	0.784019583875538	0.786312334778176	0.777318003345302	0.776823535552645	0.776905028622117	0.765619065392549	0.768857029301161	0.766136478999895	0.750891108523032	0.742990449132933	0.743201972955901	0.739827126207107	0.730222277928814	0.716604302569013	0.712365892717516	0.708436988914897
0.939115580245251	0.936660775886331	0.941815112126195	0.939896115307671	0.943164510104908	0.941557183733793	0.942116433745084	0.944077430766599	0.952554040082016	0.955253631730589	0.952737001108443	0.942412585826771	0.937278872769286	0.93250380024674	0.926655416023584	0.922267289648386	0.922008805917147	0.917384334897539	0.906249872115235	0.898323990138917	0.900090662349016	0.900157708498502	0.903251318430561	0.898411346172288	0.905770065283386	0.907552349012183	0.912411648538676	0.919675494445375	0.921266873654464	0.906948432969488	0.895170994796919	0.902423983763909	0.912265389322763	0.914265001341004	0.918500671396368	0.923825836575694	0.912648231370134	0.909437635898808	0.905263894433451	0.909598889963728	0.898826763046343	0.901278081755175	0.903009675885821	0.901093990821865	0.902670787427283	0.911199394817338	0.919010141876813	0.926529650227748	0.928517860788194	0.924725047920256	0.914493138102691	0.920882593853993	0.917052218368474	0.91053141720738	0.904574169008923	0.897032148540135	0.896520864247911	0.885355828898863	0.877356863208581	0.866038994640859	0.856218131632352	0.855117572889857	0.86429984017736	0.866052678548869	0.874498313697098	0.866674456451722	0.870261326606682	0.86421944156121	0.861339657105161	0.866622665142707	0.856651492139851	0.855117384520683	0.864684493154787	0.865777755627212	0.85033587731867	0.846970356530727	0.839274340430019	0.829308392646485	0.826261347657361	0.818669284624298	0.822692638279502	0.814070514878585	0.807315105500432	0.799099562466287	0.77655099032469	0.77897925978735	0.775194490367467	0.778734149845639	0.776288077241511	0.775950141252735	0.780259877257177	0.776045033491941	0.774771651518896	0.763198906399609	0.759036542083295	0.746534315069007	0.735192381386672	0.718165100165769	0.721769628164965	0.717603915540177	0.717352777044627	0.710106534247143	0.720857298346167	0.716784667581438	0.711244225439549	0.708770503535161	0.712757130733064	0.71533944793856	0.721072260595227	0.71218738843226	0.720407476725899	0.708158730478924	0.703311151959274	0.700282699348767	0.698820435473406	0.686108151862986	0.685657609744184	0.681118690761029	0.670278715624767	0.671096547997931	0.675595757591298	0.672516368258221	0.669396653806129	0.670593440829398	0.670866082644398	0.657042057245137	0.661655188897844	0.664996215417854	0.664409210248974	0.652888979584089	0.636296106543562	0.650676425083867	0.660241616350203	0.65921148933542	0.662213407863291	0.672836582023437	0.661566320423244	0.655280188667679	0.65333714327653	0.647197624324377	0.638814325829766	0.637905133220983	0.629827474680006	0.629479812497223	0.637884895716052	0.637881563854641	0.643963302062323	0.647008151000288	0.652331016947974	0.650661770997312	0.648323910808285	0.648025486106995	0.644265913897887	0.633126287091096	0.625512916954194	0.623013858208195	0.621756032791393	0.610054165955669	0.601922627120558	0.596414094720463	0.591069600631822	0.592248303363542	0.597182614239537	0.601225451591815	0.599276192988916	0.589944666512056	0.589973157523545	0.584113902763088	0.582957432876734	0.588428125265611	0.576777299895034	0.573225457735478	0.577860036457137	0.577795243009347	0.577644719947316	0.571652308046348	0.565018934226822	0.565722403814385	0.55850289713603	0.565797960289294
0.710725043519222	0.711645776541047	0.724954332605401	0.728107726315817	0.725797091666682	0.733364043569428	0.731356120255638	0.727979708312514	0.730627066307384	0.728020639246059	0.725333569007039	0.731278278910322	0.730030654751944	0.732195522394542	0.725965256462165	0.728855157817334	0.733443987013541	0.73400498495651	0.738575568389407	0.735911116255946	0.735582517094232	0.735822607888114	0.736894265647336	0.734841563646242	0.735615803371967	0.734635828574087	0.733449067168189	0.732434201426818	0.734286399635956	0.733396957424028	0.740859016566276	0.72456350504634	0.725335173694382	0.724488794246047	0.732869895454533	0.727692076913182	0.719598435560619	0.723334437711225	0.712224458589673	0.721795311429909	0.713397892392239	0.70377466590361	0.695635304439364	0.69007214645427	0.688620066733211	0.68103365261099	0.672376425104422	0.672189268791314	0.670048359827746	0.669016431317093	0.669455431373742	0.658539865447345	0.647403083263408	0.635986939111829	0.632075247685141	0.626390556730665	0.624445727227288	0.618028387362704	0.618337915301438	0.614595095472613	0.612380779495551	0.609014021242425	0.604816687926689	0.600802445858611	0.604690710527763	0.598990130709467	0.590882595338804	0.586240756279658	0.583579713995441	0.572417829877411	0.573717056072484	0.573397645224448	0.569852396688254	0.571521198218756	0.563387546621255	0.566976697059953	0.559478793572194	0.559816438127025	0.556425151217448	0.560369329610507	0.553673496169062	0.553031760357265	0.545406998835503	0.545508456964268	0.530475452804386	0.539489879623549	0.538439523825676	0.537272884726992	0.536153322077238	0.53664293970746	0.53408422249211	0.541468698307249	0.537850842336848	0.537514712208752	0.546029168937565	0.54355755549266	0.536847386400087	0.53312266781241	0.536828760701297	0.534840457961874	0.531203797464108	0.540198804348228	0.548149469357173	0.548715774451709	0.552619692672468	0.560177881045223	0.55126841752109	0.550220846097185	0.547639173159742	0.542378584868504	0.547662591684229	0.552267568797787	0.54642147976271	0.548290790061223	0.540895166122045	0.543409814569789	0.552833258306063	0.551878862678829	0.547427889652456	0.545129380218932	0.553656870635728	0.555357160101058	0.552653165859714	0.54603388645889	0.552074406356731	0.55241299577389	0.552540340915314	0.549753998080112	0.552351268694161	0.55278838581754	0.554751069015131	0.537343614196867	0.535670466090247	0.536101778269266	0.5379476520672	0.533250967468218	0.523858327764671	0.52456895359205	0.516177582422466	0.52238646447542	0.518742500347397	0.520622925124867	0.511019644220488	0.504730806889628	0.505120958312797	0.49404309258428	0.493551702921931	0.497371301144531	0.491211882745642	0.492709903948646	0.490076481228992	0.479730259519896	0.464428272654242	0.458345993591276	0.457657308812059	0.451303302005084	0.446813275133707	0.447030072876165	0.446539188779158	0.442599860416937	0.443892811418108	0.436596330041219	0.43581041019129	0.425775237336228	0.427950430796917	0.421945365299173	0.423386273868156	0.421714050958875	0.417622860606166	0.40823736050754	0.412796075005495	0.407865284685617	0.407062161760737	0.401668778087697	0.399103580829906	0.397252031566872	0.386217064116852	0.384091921100784	0.382135259975276	0.382917952075785
0.566420401121685	0.563054420625134	0.573570788027256	0.574796985648694	0.579009259956787	0.580705103124165	0.58160393131886	0.588030461824034	0.583685291171047	0.590549427240551	0.589931556680374	0.583154177820881	0.59196676035652	0.588943482027858	0.588405712845577	0.581816895326433	0.585553392174319	0.586375762843677	0.589671578383535	0.583401286176295	0.575386530394902	0.576945822247762	0.572732306621785	0.577184566238289	0.57816415276429	0.573010132199208	0.575176460945289	0.573800496338851	0.586816020087632	0.593843571689097	0.593819864539237	0.594555817975767	0.590868883942858	0.599925464506697	0.602185128806199	0.59793007748682	0.604323197234235	0.597894739464188	0.592998772432371	0.591697554013143	0.588598144111118	0.593136018414567	0.601297627526889	0.603012885535529	0.603433963726138	0.598782950434376	0.594819928761059	0.59641011549467	0.589455395449973	0.584492758749599	0.583318082498931	0.581267135820275	0.576988143072258	0.568456840440261	0.569017664603293	0.561665845349026	0.556383219938343	0.546673509020767	0.547793765514913	0.544194519947292	0.544490981769544	0.538440777912022	0.533781517068918	0.532189899542721	0.526765417985333	0.528692093961875	0.521950546834085	0.521778336235979	0.512146811091601	0.513256781319206	0.518301492063182	0.515491030379426	0.515174983945572	0.510366032319636	0.514979285956346	0.516222256698561	0.511924545692859	0.502154158266663	0.490779884719145	0.481595855546465	0.479650287165063	0.478577517316428	0.474379568123835	0.465034760007955	0.458840468937019	0.456378219321144	0.450204317293866	0.451093304159055	0.458444310726162	0.457307774320454	0.451963623932578	0.449574120283077	0.440650415944244	0.436025448947511	0.443056314877007	0.4374349830452	0.437014074936701	0.429721026225854	0.431986104045245	0.44091389220621	0.436525310510039	0.436517594978605	0.447039805018617	0.443298564070407	0.440996060490155	0.443559018993609	0.448432926264883	0.45108863046269	0.447653824078258	0.446801218589169	0.449668488923806	0.444043074089377	0.451266583455373	0.442156166002897	0.443797422631327	0.437852754139813	0.443879420840628	0.446943256539257	0.451057680188774	0.44560384855529	0.443621228164237	0.443002609588897	0.439425836784495	0.445871401037029	0.445042646534623	0.436926374401354	0.43642477001378	0.440142302473773	0.447210909705322	0.45028959261226	0.45275388283838	0.449128109672423	0.455867883683507	0.459755723847761	0.451088981455936	0.452572590299836	0.454261101161348	0.448454147865348	0.442086829981349	0.439205931942899	0.442667049616439	0.447736922780055	0.453392153943554	0.450489164102811	0.44522796341296	0.452209176269166	0.443298799625139	0.445365636891431	0.441084173383102	0.435246812063157	0.428383616279966	0.428600533539583	0.422108674267496	0.411867015650068	0.409702092625889	0.401633004915186	0.399591948870416	0.396534951150073	0.39920382533097	0.391479270466635	0.395567206774234	0.392640433501078	0.39203509557251	0.383174349593101	0.387163911967656	0.383051534117842	0.371758737644825	0.373901481357344	0.366712730831151	0.369633185316811	0.366597814622206	0.361985920449246	0.361170176461996	0.357405949394037	0.368503523251272	0.365055606303681	0.357175850121595	0.355397155738575	0.341343632374149	0.335897396244781
0.437539002528602	0.434263658401045	0.434889481354511	0.4362123541692	0.436669722671747	0.440667140098541	0.439104700340866	0.431852421021834	0.434980859386053	0.44529479081962	0.435821498660807	0.43444511684076	0.438663035176252	0.434622166284441	0.433424847474732	0.433681934525778	0.428255202570777	0.43079920395878	0.426791616428122	0.426586548832283	0.420744255171783	0.411057090490783	0.403376099585068	0.403049660764261	0.400871528042241	0.396460631251981	0.392561776267655	0.393953334048779	0.396116408620008	0.402905936410923	0.399307427874421	0.403366470981423	0.395844309074495	0.399334157895295	0.402335200972922	0.401615921182749	0.400797763847111	0.401114880366446	0.397562897673151	0.393722988657398	0.396289314535009	0.390600087668705	0.391735434368872	0.392375785295467	0.391412288286607	0.391876130969415	0.392130162659986	0.395063798851453	0.390144424911931	0.386568883115087	0.38909825195931	0.388275640258045	0.386975282413616	0.383663227963243	0.379209602269085	0.380220045147624	0.37774145673967	0.375796747110385	0.373942377968568	0.367934403433012	0.363593056283249	0.365618243039377	0.36731567826103	0.366928636509279	0.360282661762431	0.361350118858321	0.360727848515633	0.356262536496383	0.354756014661401	0.351749942830445	0.355968657443473	0.364464713822513	0.367153169637964	0.370197977946113	0.367996672643602	0.373892714257655	0.371167782555582	0.370553323928678	0.367835642393014	0.361136636741983	0.359759277140704	0.352535801184637	0.358428154321108	0.353071470050538	0.349125111734978	0.346902354090355	0.345888661750181	0.347390171623647	0.343094978879842	0.34377417064432	0.343262384822461	0.343348134637543	0.347114969233802	0.342521072079152	0.342417619940856	0.339830303305988	0.330540655978225	0.327375172440138	0.328895837934922	0.324996265281391	0.325217938444386	0.326497662210886	0.324595601649775	0.322311748223393	0.325512377494806	0.330930462397104	0.328247528450621	0.326675118901615	0.329605598318704	0.334514093125701	0.32868127935011	0.324779929349847	0.325662566003153	0.327524389984799	0.327651699495919	0.32852137557284	0.32714047316166	0.32866682317595	0.330927751424534	0.326547534890435	0.321597866363726	0.313028078336619	0.305167176803084	0.307806416174431	0.299807516292503	0.296430085769951	0.295515961002944	0.295851743145442	0.296405763195269	0.301327680821361	0.30228629253136	0.301756489627255	0.294811396657563	0.300160852808284	0.300740287188124	0.29991498664952	0.301452996287927	0.30120815218115	0.295030759816432	0.289905892205439	0.294184850941389	0.288385571341911	0.284601322415846	0.283080349382732	0.285196741046087	0.282570089155726	0.288142745246613	0.289276449421936	0.286929611021503	0.284001332483447	0.286484079446049	0.282658108648632	0.279869559460357	0.273024903102052	0.270350802360768	0.272428170178021	0.261913162184441	0.260284148624985	0.260541813188839	0.257466911592182	0.2603570552103	0.262872772481961	0.257448713383898	0.254248799441473	0.248095381962249	0.248799633575034	0.245925270329083	0.243085053778977	0.243253075717107	0.23948486311843	0.248531235670073	0.251568016254681	0.253426931034044	0.25362188180469	0.252543826558103	0.25526287768572	0.250235209783684	0.25216390369052	0.24908485392996	0.242906972052805
0.335051121517093	0.334538656826243	0.330843482030812	0.330424919719345	0.336541422305312	0.33736518537976	0.339160972631211	0.328241810174033	0.323942557858184	0.322455676585507	0.323120538346127	0.32381746684423	0.325125101645149	0.330967035808499	0.330336861643629	0.335463514934366	0.329524498426486	0.327796840310266	0.327386524988682	0.327228406277678	0.329494733177863	0.323508218260401	0.321823652467929	0.32047911571695	0.317136373116502	0.327437225609817	0.32570839013897	0.326296306706361	0.33016391549818	0.326203526658875	0.323088063627126	0.322071281395223	0.32654572468612	0.326787235134364	0.3299852618702	0.337275441764607	0.331154853633323	0.335763655064558	0.337347699842827	0.342085517626842	0.341843840598626	0.344255386352129	0.349885355005939	0.343539693764718	0.336199923394594	0.336348649593581	0.339171372145552	0.335787184102436	0.337008511717096	0.340534864759662	0.338349525807722	0.340517677158067	0.34044267496738	0.338828789637798	0.336390950161577	0.336784973691237	0.334598127130569	0.340398421838462	0.344109426057039	0.339922880591621	0.336700833459138	0.339641313940195	0.329088591738225	0.326704456631547	0.323498070702678	0.323820747992808	0.324042671280935	0.322951712435719	0.313943949526388	0.315289890928374	0.315176398801094	0.315364541358517	0.312664592568765	0.315805106635786	0.315605646910766	0.304890021198631	0.30647035220003	0.299745962008235	0.303840694409285	0.295909657323039	0.295232402505413	0.293396017139043	0.289799834049436	0.285186407056915	0.281932029711608	0.275519692802711	0.272104479142856	0.272779704516573	0.267631517505027	0.261842120430383	0.260097866301663	0.256555913852958	0.252001951919996	0.255106013108221	0.255863726218184	0.255738740716882	0.253851365480796	0.251932455514136	0.245424611951684	0.243256084545441	0.238001997266486	0.240522558207772	0.240157777586508	0.238530758222701	0.238042111343057	0.244725220140346	0.240727070249447	0.232429005240831	0.234120557839324	0.232056257128688	0.230583205481791	0.231887581203898	0.235818341408259	0.234980115659502	0.238195090030214	0.234380400443302	0.235447051393609	0.237909930833792	0.242098091757297	0.242256759248181	0.239628680053013	0.237056770207235	0.239237484267782	0.233921347434535	0.23732842852055	0.242649277343959	0.243529672126946	0.242801494120455	0.241350182120289	0.237567124675103	0.234749119527962	0.234718551200782	0.232944803520356	0.23486145020959	0.238212860461984	0.241332200914765	0.235614788296941	0.240135597682258	0.241671338084796	0.245213748541362	0.246950014730598	0.249614195491668	0.249192157465877	0.246955791527054	0.239953032997247	0.239425230699571	0.244703159265769	0.238273406486308	0.240571549787831	0.247113629936611	0.24195062750024	0.244714657362577	0.239460214819639	0.240664764666131	0.235250501607344	0.236313876912321	0.234453839065316	0.235809721093747	0.239780126770494	0.235129903931436	0.233749293606321	0.234755216565089	0.228570018802598	0.228159413347787	0.224078473758799	0.220467755539883	0.219210913078227	0.213458822013315	0.214312008966145	0.21419131775029	0.213363500044461	0.213014824304843	0.213137468844624	0.216673618847581	0.214447647558621	0.205004355767982	0.20709233945579	0.203920109113922	0.205419047439534	0.201319401934156
0.291046838908171	0.294102500020638	0.296199289604215	0.299580924843524	0.299018029357614	0.300917292440915	0.300994098084771	0.300505457610288	0.304983735425307	0.29924138712328	0.293343025793461	0.294441893871876	0.291376275365617	0.289535834244604	0.286939568847687	0.28832975259806	0.291009574563086	0.293122516321563	0.295311924617635	0.295439254200663	0.29464104618722	0.299592178540335	0.303258373127991	0.300151229600964	0.298693220492354	0.297226388417662	0.299672381010659	0.302263059469479	0.300247597114921	0.306030862532949	0.304421753070616	0.304068637549895	0.294421107397338	0.296557897023021	0.292965811726971	0.293005261178748	0.292932281531676	0.291373167215024	0.298652870722474	0.294469014635955	0.289062974296241	0.284747117929992	0.290550250543001	0.284177320838772	0.287098930460265	0.283784783123857	0.284021223166574	0.280505264236338	0.283100221769414	0.285874182837736	0.281267932085207	0.278744273708849	0.280683199063981	0.275043476080644	0.27811839794671	0.275288497076283	0.272530645562356	0.272720945010036	0.271344647471266	0.268880039064083	0.27463456863775	0.276052242114171	0.270375351331306	0.273005315992865	0.274763202634743	0.271588584931892	0.273544724134115	0.269726681699705	0.264643738328431	0.26190852544647	0.257965405295928	0.252574211599222	0.254781935625759	0.252109986811315	0.249975782984717	0.251990634941464	0.24820159782179	0.244334460229929	0.242004015892112	0.235602112756638	0.236253828987606	0.242069534081213	0.241886188135759	0.240426599965316	0.24217130212471	0.243287658212628	0.243338938351604	0.242807766617991	0.242030517439229	0.241154213732685	0.241506453215304	0.239495600833006	0.237805085619554	0.234310199225372	0.236110169772963	0.234200062969271	0.237737748354914	0.238982013007671	0.230556556266151	0.231910472141638	0.231197471922645	0.232320243874026	0.234037262143448	0.232222330277599	0.235069044235517	0.234191920641148	0.230223571464649	0.230667794248707	0.234721957172415	0.228129738122051	0.222112398794914	0.220631305122407	0.218661821043349	0.21879827755594	0.214842313752243	0.215998295279494	0.21803476685453	0.220611482856752	0.221496212853576	0.224580134520958	0.221988559609978	0.226571452046341	0.227986335198382	0.225667959414915	0.225363079835607	0.228453894825188	0.227430583965702	0.227513355207827	0.227189689627782	0.229676974984192	0.229354303710679	0.227148767938176	0.223489767173654	0.222204242800672	0.220577095309038	0.22059887535	0.219414750532412	0.221601905365533	0.222249633684197	0.222004643613551	0.215426513697063	0.214785865113473	0.223826474666358	0.218202982182932	0.21801397385304	0.212601594233109	0.211352758088685	0.211515655377705	0.215770834927141	0.216227590200206	0.214439839534004	0.212330932625939	0.213764708357978	0.207997981852355	0.208375057889861	0.210627263811208	0.205555355706275	0.203532501891201	0.205471250700343	0.207551643146672	0.208706896904575	0.204810956817532	0.203744005810053	0.207426564013294	0.206917688879985	0.202117944192173	0.203526628939385	0.202135395593546	0.196731236962466	0.192925222022126	0.192043226297925	0.191219957527982	0.188431748962812	0.185291752644174	0.184691125769363	0.184797318326915	0.177560579999625	0.17488309601104	0.173176278327323	0.1665870531525
0.221098040870098	0.223647081532444	0.223478006064741	0.219192654862861	0.211123168584534	0.20928410459032	0.204336555968697	0.202897416357538	0.2043476288584	0.198880910826385	0.200645655747768	0.202442859443605	0.203189241404024	0.201421662433298	0.203930536844759	0.197944121461263	0.206071931058589	0.203032957223279	0.206033952400067	0.20379066907612	0.203266521402601	0.20106560795605	0.204355525743094	0.203303722494223	0.200987449178104	0.19975518077976	0.195811263104119	0.200420105650239	0.195302415966283	0.191453272534348	0.191099871566637	0.191387325891846	0.18991827263	0.188327256554695	0.187033771755729	0.188560271103994	0.19084096228793	0.188260152196802	0.186076725585792	0.18689331705526	0.185063548925993	0.18330531144305	0.18327434253361	0.188035972523822	0.185173811265203	0.192399487240496	0.193038471053567	0.193931446554507	0.194367957260341	0.195324386372125	0.19190313533052	0.193489727994047	0.187149631054203	0.188605586462793	0.195423273898454	0.198243571812033	0.197222026513019	0.196304374099813	0.20000184658609	0.196995086701997	0.195098688351826	0.193224928772964	0.19570941656935	0.191670517706112	0.191232455824305	0.189423184249192	0.187637758810252	0.18887923490878	0.183487881858505	0.184381434872651	0.186629505644808	0.184250655865528	0.185429335617887	0.180914815741485	0.18450564490649	0.18726026257675	0.183631632833539	0.187728004568069	0.188368685411472	0.188197282752764	0.184484531281994	0.185555334344426	0.18359817275127	0.184663848921662	0.18346879251354	0.181830240084606	0.183073014324073	0.181825188874318	0.183604094302019	0.184541827309287	0.181525322704398	0.183463930843912	0.18419908668224	0.180835833300725	0.175673854530641	0.171124065526187	0.167838353154841	0.167358558464309	0.166922644850725	0.164178003559661	0.167369158296145	0.167456033602781	0.166395724925347	0.163049290510484	0.154683230111717	0.150852631242507	0.148256342649807	0.147128231377035	0.14761111579244	0.14797354720287	0.148120028695003	0.148764808068715	0.148241048963574	0.148529689606475	0.147020713240067	0.148367137633857	0.151954376504221	0.149255749573352	0.154228990106141	0.151026907823652	0.150438781414693	0.149284243460342	0.152210125567235	0.151420473534203	0.151703671962329	0.149236527220382	0.145873311355138	0.150162621771638	0.14177533085615	0.141176318024728	0.141744177137525	0.141256340514563	0.138320002857315	0.135391596618135	0.136063374970118	0.134833320374035	0.137432298230353	0.133559653221892	0.130221181435359	0.134378970151446	0.130734446122619	0.125597848734036	0.130261817806446	0.132606195064699	0.132285190125387	0.133943232477118	0.136874591461603	0.138693774740705	0.137808429009087	0.135075867869708	0.134221703876659	0.131141901728199	0.131327880134564	0.136813093006127	0.139962138957787	0.136412165255259	0.136400086452888	0.13690822437223	0.136706429211262	0.138233775169187	0.135231656756172	0.131535590595205	0.133320581584417	0.129074306144559	0.12778124349753	0.126440755959439	0.122859471012688	0.124478228827427	0.117024694535219	0.119611403856417	0.12042473011519	0.116388078244748	0.114976618172205	0.112631677181718	0.114561036895051	0.114526867401857	0.11425788835505	0.118683205439223	0.11717796646813	0.118426089919472
0.15971254009344	0.157992192455427	0.155780125060955	0.154934301980048	0.156541751080358	0.156661946774146	0.158807045304698	0.158978777136076	0.158357957325388	0.157717706867689	0.15742911987526	0.157135024439546	0.157860403613913	0.156959236026193	0.153801675671501	0.15775755040788	0.152479342130516	0.156447623765777	0.151458080479208	0.152511158076819	0.154334052792223	0.153892724095654	0.152969314003346	0.151518243880049	0.149198762200078	0.151206061508169	0.150499332140132	0.149449365362724	0.151742671894225	0.149519933737777	0.150673086626159	0.150227129842323	0.152418616224469	0.154000336461304	0.148320035974889	0.148818152924271	0.150632642190329	0.149005990009234	0.147460580987935	0.150374350806292	0.150422543379312	0.152154185969605	0.151950005421359	0.153161601734042	0.155169972237635	0.151473452783799	0.155833354623509	0.156311712150007	0.155782349003947	0.154445695709584	0.156362107778888	0.158726464152077	0.159566041338308	0.158617118908491	0.154652386932467	0.154150430481803	0.15447141970405	0.15104176810752	0.150618159919198	0.14866676543766	0.149736181072434	0.151825398649204	0.151177066287986	0.151821951083059	0.150645550907617	0.149904293786936	0.152019502594472	0.15320597271795	0.15025654203989	0.14983269879207	0.14878241831789	0.147165234507967	0.148586312338876	0.152847971400374	0.152054396078405	0.149547819759181	0.147426127680588	0.146090057138343	0.145601068236148	0.14360545000344	0.144589978072557	0.140758967743555	0.138503320714481	0.142266379596606	0.142479699961786	0.141419402474539	0.140695568413488	0.140121668233114	0.138259371313046	0.136622461471908	0.134157349217994	0.134775608641413	0.134304547583891	0.130957916812069	0.128351184408397	0.126778927629412	0.124598529825398	0.120438258973638	0.12306378461782	0.118539605452246	0.117678062263947	0.116600836486972	0.116458265175085	0.116178593052969	0.116114606246963	0.116241035943068	0.117295200459201	0.116818383362711	0.11759837430124	0.116879224664973	0.116797059877774	0.117485094639193	0.116323993570929	0.116724881366164	0.114980848865903	0.115917061387236	0.114108807386703	0.11749319637335	0.1106216733897	0.112373881786906	0.113547038447363	0.112054146333808	0.110065843576501	0.106472395445327	0.107315122676703	0.106859138323722	0.108406214016539	0.10726235807373	0.10888429063657	0.108597222006601	0.111321602603243	0.108928055526423	0.110409506222989	0.1112355858382	0.106678133580886	0.110386341107643	0.111194061180964	0.107804082549169	0.106658520717264	0.110121938493262	0.109554889683668	0.108117566424693	0.109406712010065	0.11189500904388	0.113531167463756	0.112018909421546	0.116008611373698	0.115542039257561	0.116118051161178	0.11574447172758	0.117920245543079	0.117966772348592	0.116530634152552	0.118248929715894	0.112948211684663	0.111692161860803	0.112765105768014	0.111890408359896	0.108601379002524	0.108865743661667	0.110239876885507	0.109612316820652	0.111608444555832	0.110574645796846	0.108851334955718	0.107400278695895	0.10918610115761	0.109865394985585	0.104102440158657	0.105203822294365	0.102833730066373	0.104798511460922	0.1061033949208	0.10747301323975	0.106464650661376	0.1065546052068	0.105137847907704	0.102511001452335	0.100726190080521	0.0999238852074219
0.109298712881324	0.108515228988782	0.106558231426301	0.103383277348119	0.102296038386057	0.105270561039428	0.105970655790755	0.1041136378976	0.10469016907042	0.106277277520824	0.106085818998392	0.106289275105255	0.105340543574947	0.105273191492064	0.105506487407625	0.104074825597693	0.107465973963999	0.108552856529429	0.108079105583485	0.108503521813921	0.107132843066977	0.105519249558803	0.106640262099886	0.104933280756336	0.104302942751855	0.108766216516616	0.108547857882104	0.106797742283003	0.106839475593862	0.108442110733285	0.106877094143037	0.107315722090426	0.10440286020725	0.105881450094301	0.10813831595737	0.1073513024115	0.108861246077113	0.109384555779734	0.110527897655798	0.115582486243073	0.11608955135782	0.11495180938625	0.114383241494613	0.113484435103151	0.112465120760053	0.113326663948352	0.114998720112368	0.111995832196048	0.109275529071904	0.109224313429772	0.111699830313033	0.109579847139704	0.111190366536006	0.113423438346475	0.112880325762163	0.111018294216501	0.110771197575967	0.10837769005943	0.105196232879621	0.105812571231484	0.10524457332084	0.106143795590025	0.103552206729134	0.105097543877461	0.105837445812777	0.103790453727607	0.100078436475181	0.100523956220422	0.100307604588632	0.100793949421884	0.0995868079747158	0.100154057766297	0.100476612552915	0.100898122265938	0.0998207473851881	0.0938579148391735	0.0941077568187622	0.092614780304673	0.0927083620294437	0.0912952800816035	0.0905396394599799	0.0919714842491931	0.093538822058544	0.0893453227757002	0.0907473344690165	0.0878540912389949	0.0860212925158445	0.0854769015550272	0.0841785178398254	0.0794478951897373	0.0785201222184688	0.0806281253275945	0.0788110802409662	0.0816926908630876	0.0807485772612054	0.0809020649383729	0.0803460667799616	0.0807712071449972	0.0799852551027535	0.080747617947652	0.0784227582173741	0.0796175801020359	0.0780298951959357	0.0750824466076258	0.0729781906672646	0.0767503941898712	0.0772866987024312	0.0790100925818287	0.0791110174669798	0.0799668607996842	0.0807207084104253	0.0795318866945277	0.079737991184574	0.0792134399244263	0.0765306879956	0.0772082177662994	0.0798437255109818	0.0794120089390049	0.0795695302505629	0.0794923045396378	0.074757328063627	0.0737644215733841	0.0763849365440415	0.076252705882275	0.0772070236113813	0.0805010767176166	0.0790745606069739	0.0772773837907666	0.0769594263189056	0.0775112642110084	0.0764366565680934	0.0755880913448604	0.0750987067406718	0.0783127240922904	0.0793011700763494	0.0799745329651205	0.079856857773477	0.0798357765152805	0.0821796344351211	0.0829443661518965	0.0834079601869803	0.082482478966117	0.0800740377323558	0.0791980595963899	0.078133072449275	0.0780767985540291	0.0790683549958826	0.0782410428271203	0.077640377971057	0.0783960185926806	0.0802880967561526	0.0759668107777836	0.0774904734866572	0.0769211704063443	0.0768018290867155	0.0730296255641089	0.0729909526737374	0.0726923000929628	0.0703811568649395	0.070334739412099	0.0716105726240773	0.0692836093533412	0.0698837517595445	0.0717480559291629	0.0694768035041014	0.0698049902843818	0.0657647862516754	0.0670464172346895	0.0675385811239457	0.0666558861293121	0.0682075173237745	0.0648522227084123	0.0624897973403851	0.0650114829214745	0.0627056091923044	0.0572387590595525	0.0597174860577747	0.0577810506208683	0.0585731739993635	0.0575196232696259
0.0867546696709086	0.0885123616791987	0.0889451024672983	0.0879534046926937	0.0885540601793192	0.0889005708272936	0.0927544707391414	0.0939139539539268	0.092927770412955	0.0942826826520581	0.0965580125187065	0.0977871428628974	0.0988942254192955	0.0948790468320344	0.0961880895344486	0.0960958400451305	0.0947656677231765	0.0958005810713157	0.0958780962513544	0.0962713244922512	0.0974398313620229	0.0987416913303482	0.0990166268300565	0.0987774264144622	0.0978266034959447	0.0939043747012351	0.0898683498116553	0.0910745208385359	0.0891683924836545	0.0898531563831126	0.0898110875963416	0.0902841859217106	0.0931742656484967	0.0897117240591465	0.0936093652115105	0.0913801486428103	0.091103527073721	0.0912921986270826	0.0908194217388714	0.0934105840643788	0.0920063627114809	0.0944856042411696	0.094603677078811	0.0965345808555056	0.0955378701828428	0.0933832735662157	0.0931166801652471	0.0954557246485982	0.0917719848181242	0.0931483124576797	0.0935092440971672	0.0900793956132022	0.0911240860139477	0.0917688750648146	0.0922114012302926	0.0895382661075797	0.0872663773008857	0.0851316211711573	0.0848358175362178	0.0847989199266513	0.0815244766461589	0.0783751108407452	0.0807950076041996	0.0825612019924052	0.0806714754875388	0.0790329304353512	0.0791859852198846	0.0783880571477189	0.0768027320068441	0.0763817120501958	0.07876473959218	0.0756125676931398	0.0727019506915521	0.0734242145553015	0.0724484708197698	0.0757060902374454	0.0762357236370968	0.0765946099902467	0.0752607768323452	0.0739560155671972	0.0747116561888208	0.0725855838421392	0.0713456852924396	0.0733831543698348	0.0698370861482819	0.07097062779269	0.0705061278016736	0.0712373929193738	0.0725283733762332	0.0689769235897195	0.0687464174932345	0.0679655888508901	0.0670209858075858	0.0658967136641978	0.0657207094954698	0.0679706391958772	0.0670780579821635	0.0663692714752012	0.0670159107657742	0.065100916714635	0.06605456163012	0.0663224087534853	0.0673758365595169	0.0651427647490483	0.0671978587261534	0.0668635382591078	0.0721317263838295	0.0721492873825655	0.072024647029893	0.0745914239987113	0.0733186414134593	0.0761950948036863	0.0743107479571585	0.0728865959778795	0.0739991407734959	0.0738511697097972	0.0724586461245824	0.0748639911977795	0.0758215153635634	0.0737386203012689	0.0759358392487286	0.0768265029277362	0.0780736201031492	0.0772842786045017	0.075463379622001	0.0711406054210484	0.0698322646446301	0.0710384356715107	0.0715309079983247	0.0715813924044617	0.0715813924044617	0.0731549541154693	0.074819630964036	0.0744338711419566	0.0754672498004093	0.0725887023845678	0.0705802242174047	0.0711444414810107	0.0708513102692374	0.0707657204936143	0.0703437870750391	0.0721602728000249	0.0726268921202323	0.0738778386511154	0.0699085902683856	0.0698960859007245	0.0697807664370018	0.0695541191243028	0.0673137783721516	0.0682549986945995	0.068512371239611	0.0652575349733304	0.0663022253740759	0.0660508718064815	0.0647395181496974	0.0612181905191795	0.0581125502399377	0.056476832356539	0.0570056743003323	0.0570948618516393	0.054833680356779	0.0511030259809816	0.0546741347768078	0.0526820744838509	0.0526730633638775	0.0502581345052346	0.0506683701561267	0.0504111892897679	0.0489478727477893	0.0493883959794402	0.0500814596667467	0.0477918418880438	0.0471378722072277	0.0485786868802831	0.0475484772901121	0.0498122107920611	0.0512117383145247	0.0497516200758693	0.0481591535033969	0.0453184808346315
0.0678931604185036	0.0660998821486932	0.0661201587035041	0.0661105959932206	0.0644816347264788	0.0629785874622029	0.0657033986729327	0.0634740576106408	0.0652718535260217	0.0661966590379065	0.0668815067027662	0.064430022201779	0.0640863125410184	0.0610899388326725	0.064165265666739	0.0652349969773063	0.0648093443389274	0.0659847355686958	0.0658562139013712	0.0680818745878873	0.0672032101185394	0.0654610184690829	0.0642579627558641	0.0642185498848182	0.0657081700541555	0.0666868391696795	0.0691152218457115	0.069890898919459	0.0729772572155517	0.0727902226633112	0.0746252447998335	0.0749512843804413	0.0745265992070622	0.0743416135903596	0.073280356627939	0.073238287841168	0.0716117730825394	0.0735508486477771	0.0706506912717345	0.0710588486167573	0.0689401952661271	0.0686831577427581	0.0708108371663009	0.0693079173928052	0.0700104644042288	0.0676515866951117	0.0662504759111526	0.0665521812542239	0.0650576073485103	0.0643929260747515	0.0617578149008255	0.0637762017145209	0.0634897714601951	0.0639269657250939	0.0658025613286848	0.0632421180602342	0.0627646322058799	0.0625145562765236	0.0614016080260025	0.0606257063218057	0.0611460309065241	0.0629148971630723	0.0637199491638384	0.0622111225787488	0.0606359393422458	0.059957393379698	0.0585444189514964	0.0590218923151362	0.0589704095704744	0.0553271387642099	0.0566669486936441	0.0582167273841606	0.0594055887636944	0.056952066032071	0.05585801203358	0.0539374647745785	0.0516185147507781	0.0505532412385179	0.0513105616817458	0.0487303360524249	0.0480560074339178	0.0446309311571583	0.0439630550391026	0.0434562991268586	0.0442900505994062	0.0437114323682452	0.0446751913221708	0.0452137691293665	0.044393985487189	0.0442118740084117	0.0448793969687294	0.0443874261803111	0.0431419795123319	0.0433908642217114	0.0416390597388362	0.0438292096564309	0.0452684479702754	0.045886679298266	0.0486280116839876	0.0477119402476934	0.0493968818060664	0.0473853122200895	0.0467039328180714	0.0463737496174644	0.0456660736971093	0.0472708580330308	0.0489960620201311	0.0459946557437756	0.0477924516591565	0.0487172571710413	0.0478835056984936	0.0447007560798061	0.0458935156830135	0.0456512001386974	0.046811789832669	0.0464042370652902	0.0470890847301499	0.0480901239086785	0.0475273206385414	0.0498531086879505	0.0469415592970197	0.04578427248232	0.0482694843821454	0.0476939861350555	0.0487972282262569	0.0488836360170601	0.0497999249330475	0.0497400276367626	0.0513902055099042	0.0489263006070474	0.0517087355597489	0.051612618647225	0.0523940691494657	0.0530147561673977	0.0512907434002741	0.0512907434002741	0.0518455835837558	0.0521997606764275	0.0496744412814583	0.0502369786076361	0.0493640420176022	0.0510579883943364	0.0504373013764044	0.0504373013764044	0.0512988445647037	0.0496712319732868	0.0482701211893277	0.0479711616763357	0.0470772526266854	0.0462886999089806	0.0441356818939941	0.0459089380019357	0.0448264503656495	0.0458643094866116	0.0451566335662565	0.0444717859013968	0.0439943000470425	0.0437442241176863	0.0426312758671651	0.042540221827828	0.044456835211272	0.0447782955143296	0.0440006225306968	0.0440024978176332	0.0415657713928308	0.0415657713928308	0.0406626324118046	0.0405775684492665	0.0402996351575873	0.038050385273726	0.0385662332437429	0.0409655614997022	0.040868910358313	0.0374306830459684	0.0359962667173575	0.0357984262441778	0.0347701403098971	0.0348921489087932	0.0354432779443286	0.0329203941780336
0.0532827443836666	0.0536763060677401	0.052569377780745	0.0536594977757708	0.0541913175946964	0.0570456665042525	0.0567439611611812	0.0570819824676731	0.0557329299621216	0.0546414399557017	0.0563682328905193	0.0546170372018157	0.0532796104262036	0.0545879512026219	0.0550977866497973	0.0564435161765505	0.0577405644808391	0.0583894273404887	0.0579634654430582	0.0586905945336151	0.0581557887050595	0.0563877874919556	0.0579627198641246	0.0570517690022843	0.059067269574719	0.0603246185135187	0.0632230473731901	0.0633106517735163	0.0603694898400978	0.0616550023610208	0.0563456646487415	0.0553094454289611	0.0568330488387014	0.0564142674308631	0.0549161330510798	0.0534010695582531	0.0549430761975599	0.0528211639381823	0.0539760053395736	0.0525618419703692	0.0511047857400142	0.0494847838218509	0.0476051260031012	0.0475234043574374	0.0464974450093393	0.0466758749281574	0.0470705439757407	0.044946937184313	0.044724160516524	0.0449101555982374	0.0435625521286747	0.043731527770779	0.0437133814054185	0.0430420428182309	0.0416726601836288	0.0396251675378285	0.0391200166171439	0.0399671445946469	0.0394233718958485	0.0405148619022684	0.0407030437636716	0.0428272926585303	0.0418766914317665	0.0412760265757032	0.0400585152081728	0.0396318146726938	0.0382859246218698	0.037479068358114	0.0359839181385011	0.0355463854864568	0.0369389090716716	0.0376303890463675	0.0346991511965116	0.036851476094216	0.0349396790864289	0.0312694000481493	0.0283709711884779	0.0297529788566105	0.0312245287215702	0.0326406415041302	0.037391299767999	0.0367368584756259	0.0343989224884606	0.0355985325386432	0.0354051227384163	0.0362125103108879	0.0364931662778289	0.0367924159309587	0.0370517378987718	0.0357286721273612	0.0378212846671276	0.0386990989338511	0.0395102747865972	0.0389126518677521	0.0399185890539815	0.0397054736317118	0.0405670168200111	0.0409526148317411	0.0404684519745135	0.0396417929482539	0.0403045487529569	0.0406981104370304	0.0401537194762132	0.0421944406980028	0.0428792883628626	0.0450487896075589	0.0439402280007319	0.0442782493072237	0.0431593993583875	0.0429878460230294	0.0429878460230294	0.0411532453035057	0.0403561434517689	0.0410638193721239	0.0426039074548905	0.0427215438728729	0.0440868023341995	0.0455412408246793	0.0447074893521316	0.0445443571481126	0.0445443571481126	0.0457000665786451	0.0447909265819945	0.0443127165082538	0.0469793036944928	0.0460813915750174	0.0489798204346888	0.0475978127665562	0.0461262629015965	0.0461262629015965	0.0421024377102402	0.0417844490600322	0.0427893619721607	0.041951799156484	0.0416532748268834	0.040439916677128	0.0404782423850477	0.040886668652273	0.040265981634341	0.040265981634341	0.0396942315566076	0.0378117643355058	0.0380466213849375	0.0360617421376369	0.0356564698074708	0.0364355645823521	0.036188857044739	0.0342487611645167	0.0348901377497131	0.0344126643860733	0.0344811736990706	0.0333563468972968	0.0339007378581141	0.0328106178630883	0.0324807036542564	0.0298125239905242	0.0301142293335954	0.0302536813907433	0.0326637330427034	0.0319865479823597	0.0333743398939456	0.0331908602061566	0.0327436947251203	0.0321430298690571	0.0320253934510747	0.0306796639243215	0.0288270282211893	0.0280201719574334	0.0285626871217425	0.0269619522874572	0.0282903152257443	0.0283382799270128	0.025893442896793	0.026783704191369	0.0256661157384096	0.0239616013185737	0.0224451801270349	0.0239167299919946	0.0239167299919946	0.0261943859628538
0.0335981048680753	0.0321684376647536	0.0336334013313075	0.0324269183751865	0.0340625169469136	0.0347748319756945	0.0336967428993683	0.0325968679498202	0.0347230343943943	0.0350055888259906	0.0350055888259906	0.0355681261521685	0.0341405828704806	0.0348962234921042	0.035023099026003	0.0350701120387559	0.0352744263368027	0.0357017405262209	0.0387958895540421	0.0393402805148594	0.0381484568134083	0.0381484568134083	0.0373856862449052	0.0388552983133639	0.0393024637944002	0.039562974233719	0.0388611320539534	0.0375135285843907	0.0372841455822972	0.0388895575787529	0.0389301112758543	0.0395307761319175	0.0384829457948181	0.0413871497170017	0.0397464048664155	0.041073545481391	0.0380717079072872	0.0386723727633505	0.0391195382443867	0.0400233801325217	0.0392398272997397	0.0410528838134512	0.0430446272404017	0.0424419594505114	0.0414689070227089	0.0425298478615861	0.043241364288406	0.0439041200931089	0.0433498726898862	0.0431354890658594	0.0431615166872709	0.0438028932724673	0.0438128940420137	0.0417247991695505	0.0414128147831935	0.0417633154217871	0.0410194369114316	0.040456689213345	0.0386422849566113	0.0380479683371746	0.038689344922371	0.0386686553551066	0.0389129742926846	0.0389129742926846	0.0390771070525248	0.0379834451244094	0.0386244226526229	0.0377705980447827	0.0342576676091231	0.035056642616828	0.0343425630235791	0.0346865521842439	0.0347613444314174	0.0340985886267144	0.0332917323629586	0.0325840564426036	0.0339486544270721	0.0359159726756366	0.0343360551319441	0.0341850816259681	0.032069402420455	0.032069402420455	0.0325165679014912	0.0312582658955071	0.0312531088298938	0.0324066249308427	0.0320662626007228	0.0314655977446595	0.0315628232244406	0.0321835102423726	0.0296214150568033	0.0273756177549922	0.0266728388187806	0.028046315129455	0.0262968387410315	0.0257457333493298	0.0258299161581262	0.0238616256706315	0.0237310254089945	0.0247262376753657	0.0247262376753657	0.0246042290764696	0.0253843450781637	0.0233457396550646	0.0249813382267916	0.0238256481093852	0.0230817695990298	0.0238625982413741	0.0250982914460072	0.0247865292581669	0.0247865292581669	0.0253490665843448	0.0233589859764791	0.0233589859764791	0.0242415021320014	0.0244539948233137	0.0233501501920091	0.0256621090618863	0.0269541346670058	0.0276500678948942	0.0268692392525498	0.0268692392525498	0.0264504578447115	0.0279200699131703	0.0278208895697695	0.0278208895697695	0.027119047390004	0.0266051953929889	0.0275033072090399	0.026840551404337	0.0283355435919181	0.0283355435919181	0.0278883781108819	0.0299023207384896	0.0283961965608557	0.0292299480334034	0.026749291317479	0.0277971216545785	0.0277971216545785	0.0284384982397749	0.0285527622762021	0.0307985595780132	0.0322090144345799	0.0311940381755422	0.0319253032932424	0.032230603510496	0.0329421199373159	0.0329841887240868	0.0337775447904268	0.032900405361697	0.0329264329831085	0.0327609533045491	0.032321036011331	0.0317544016212386	0.0311903103581215	0.0318109973760535	0.0311903103581215	0.0311050360236747	0.0292906317669409	0.0290080773353445	0.029649453920541	0.029794244031836	0.0291735570139039	0.0291735570139039	0.0301185184160885	0.0290614206710428	0.0291211096288726	0.0282672850210324	0.0251731359932111	0.0254095736747382	0.0244772027653227	0.0248959841731611	0.0248959841731611	0.0242332283684581	0.0242332283684581	0.023525552448103	0.0248901504325716	0.0256678829143519	0.024479841729049	0.0230874941872091
0.035159496381533	0.0356377151445106	0.0352061759693685	0.0342188671585533	0.0342188671585533	0.0341462722969145	0.0348311199617743	0.0364995194138294	0.0364995194138294	0.0379462860469724	0.038903286975184	0.0374180754118839	0.0374180754118839	0.0373799478819985	0.0374983127258842	0.0381745734731203	0.0387952604910523	0.0378084834535341	0.0341453705188964	0.0341453705188964	0.0329742815849735	0.0317161865051921	0.0317161865051921	0.0324106149662198	0.0328398434617199	0.0315461845846983	0.0324490311246621	0.0308315251237013	0.0308315251237013	0.0323431255368524	0.0318623689177474	0.0324987411379072	0.0323755496454838	0.0331919272220696	0.0325291714173667	0.0321776785200641	0.0316151411938862	0.0297875472658359	0.0307171214281614	0.0299630344366587	0.0296190452759939	0.0298692006898726	0.0301042896960747	0.0321827247600471	0.0328561136569816	0.033734064617287	0.0326862342801875	0.0316115565673759	0.0316115565673759	0.0325855520104934	0.0325855520104934	0.0320679347999676	0.0323956587683657	0.0329054942155411	0.0335682500202441	0.0330709738941005	0.0316304856076172	0.0307689424193179	0.0299620861555621	0.0294352561934809	0.0294762709456072	0.0283651748579633	0.0279324340698637	0.0279705615997491	0.0285149525605664	0.0276534093722671	0.0276380070056981	0.0275420260282134	0.0307430679657804	0.0314279156306402	0.0326454220174035	0.0331722519794847	0.0338799278998398	0.0324115241832983	0.0329818252250429	0.0329900334456438	0.0328631817129631	0.0321075410913395	0.0315068762352763	0.0307761044644696	0.0296952037988859	0.0296594964347893	0.0298668707360092	0.0298668707360092	0.0294904722963374	0.0299424315227471	0.0306840265864686	0.0312074881246196	0.0315169377650078	0.0319028200765428	0.0322662514090374	0.0313531618589662	0.0293156367349451	0.0287903966856027	0.0277470371181481	0.0267336921508323	0.0262865266697961	0.0273612043826076	0.0273612043826076	0.0263872089394902	0.026949746265668	0.0269048261500159	0.0265771021816179	0.0260672667344425	0.0267086433196389	0.0273422753423664	0.0274481779090421	0.0282550341727979	0.0274481779090421	0.0293421100232213	0.0289320087993349	0.0285578933236787	0.0281251525355791	0.0280870250056937	0.0284041772331757	0.0288816505968155	0.0291850058755201	0.0285001582106603	0.0248370452760226	0.0254577322939546	0.0236659563420997	0.0224078612623183	0.0224078612623183	0.0238099656437011	0.0243054934743598	0.0216834716590511	0.0229417736650352	0.0228111734033983	0.022210508547335	0.0242846462866639	0.0240221809837254	0.024057888347822	0.0245353617114618	0.0253517392880477	0.0239190233595993	0.0228362653445965	0.0233806563054138	0.021815527680302	0.0219382455788717	0.0207788862572029	0.0199080671344569	0.0210484838429115	0.0218182341574701	0.0231042793426707	0.0226816067931482	0.0235014080616994	0.0229007432056362	0.0218260654928246	0.0223528954549058	0.0228000609359421	0.0235077368562971	0.0231727050199922	0.0231200031409898	0.0231200031409898	0.0231200031409898	0.0232854828195492	0.0226006351546895	0.0217390919663902	0.0217390919663902	0.0212122620043089	0.0210621173398531	0.0202552610760973	0.0208559259321606	0.0208377795668	0.0208377795668	0.0199762363785007	0.0206610840433604	0.0220737562671951	0.0230812973385831	0.0243286823296207	0.0248256336874276	0.0240943685697274	0.0240943685697274	0.0240184884384007	0.0255264340933497	0.0237985390684856	0.0225402370625014	0.0232715021802016	0.0232715021802016	0.0225667580308064
0.0200860668357188	0.0205048482435572	0.0196982058035441	0.019444207123281	0.0200254956936648	0.0205029690573046	0.0186070992673383	0.018359276976786	0.0187234527591114	0.0184700697227337	0.0196817473496747	0.0202280194835858	0.0208093080539695	0.0219444352124512	0.0209704397693337	0.0205083687722629	0.0197015125085071	0.0200132746963474	0.0220954235141333	0.0222589786423207	0.0236195600769496	0.0235020558258436	0.0235020558258436	0.0228606792406472	0.0229644944473912	0.0213101923531737	0.0196040859797808	0.0212070609320354	0.0228964680348842	0.0238148992210743	0.0229246379264984	0.0223978079644172	0.0223039509085664	0.0217771209464852	0.0199831199756509	0.0199831199756509	0.021266613938542	0.021266613938542	0.0207397839764608	0.0211193314240669	0.0204565756193639	0.021795592171303	0.0209664110665393	0.0217033578590294	0.0207834211879676	0.0207834211879676	0.021424797773164	0.0221142560154866	0.0204814759651334	0.0204814759651334	0.0204814759651334	0.0201555793742156	0.0194509405709816	0.0197049392512447	0.0191236506808609	0.0197864064855639	0.0207898693977396	0.0220723399814444	0.0197639100496415	0.0193966060680872	0.0192137652666708	0.0172946671465703	0.0172946671465703	0.0165522468608223	0.0170143178578931	0.0170143178578931	0.0178211741216489	0.0175094119338087	0.015954093078104	0.015954093078104	0.0147099828169622	0.0136758455376274	0.013855151125753	0.0132137745405566	0.014358989097864	0.0151334386094157	0.0149338985374551	0.0143132115195231	0.0122228050527355	0.0123210225110925	0.0116133465907375	0.0121401765528187	0.0127608635707507	0.014554864541585	0.0127608635707507	0.0127608635707507	0.0114773696078597	0.0114773696078597	0.0120041995699409	0.0122874079270377	0.0122874079270377	0.0122874079270377	0.0117775724798623	0.0119605623584341	0.0119605623584341	0.0119605623584341	0.0119605623584341	0.0122625075812683	0.0122625075812683	0.0122625075812683	0.0129252633859713	0.0131746781315344	0.0131571171327984	0.012376288490454	0.0129575770608378	0.0129575770608378	0.0115391806345113	0.0123173176920572	0.0123173176920572	0.0132114516356927	0.0147865605951284	0.0141017129302687	0.0146285428923499	0.0152912986970529	0.0148441332160166	0.0143820622189458	0.01357520595519	0.0138869681430303	0.0154422869987349	0.0169664235615513	0.0168028684333639	0.0174922204460137	0.0170301494489429	0.0176114380193267	0.0171339646556869	0.016235303183093	0.0153100254520443	0.0174942889746828	0.0177465069227964	0.0176482894644394	0.0169406135440843	0.0164137835820031	0.0157930965640711	0.0157930965640711	0.0157930965640711	0.0157930965640711	0.0170765905269621	0.0170765905269621	0.0165497605648809	0.016929308012487	0.0162665522077841	0.0167763876549595	0.0167763876549595	0.0165933977763877	0.0165933977763877	0.0165933977763877	0.0175569286223525	0.016915552037156	0.0156500759683571	0.0156500759683571	0.0156500759683571	0.0157756855213361	0.0160631250212526	0.0155362950591714	0.0149550064887876	0.0156177622934906	0.0159584694009634	0.0157106471104112	0.014684687762313	0.0143173837807587	0.0137905538186775	0.0129002925241016	0.0129002925241016	0.0121578722383536	0.0121727777543881	0.0117107067573174	0.0125175630210732	0.0122058008332329	0.0106504819775283	0.0106504819775283	0.00957245497449571	0.00906261952732032	0.00906261952732032	0.00954009289096013	0.00985746579317025	0.010289354381791	0.00994536522112623	0.00932467820319421	0.00821655967072919	0.00831477712908626
0.017853045224197	0.0171217801064967	0.01772244496256	0.0169155886988041	0.0165963944914748	0.0163131861343779	0.0159669398920238	0.0158067982676115	0.0164274852855435	0.0164274852855435	0.0178908018275221	0.017925357341164	0.0168365754195294	0.0174178639899132	0.0180806197946162	0.0178020597087508	0.0181138218965911	0.0176810811084915	0.0174118869878621	0.0174118869878621	0.0168493496616842	0.0168940822372245	0.0176417367324378	0.0176417367324378	0.0175185452400143	0.0182498103577146	0.0194517859460304	0.0201738872458604	0.0201738872458604	0.0196294962850431	0.0191196608378677	0.0191196608378677	0.021389937053715	0.0222995670418846	0.0216989021858214	0.0223195892037534	0.0224104186126412	0.0224104186126412	0.0225483522890487	0.0249564938943687	0.0243185241244284	0.0253050850249783	0.0253677985495742	0.0247264219643778	0.0243468745167716	0.0250096303214746	0.0251627285943532	0.0266452025915929	0.0267798335244811	0.0279321602508414	0.027676647083686	0.0269453819659858	0.0271515733736784	0.0268545525570979	0.0273266671219549	0.0269860655780202	0.0270892844935759	0.0270892844935759	0.0258479104577119	0.0258479104577119	0.0248944293629087	0.025438820323726	0.025438820323726	0.0248575317533422	0.025114712619701	0.0235533993634428	0.0232416371756025	0.0236743779637021	0.0244056430814023	0.0245061094105094	0.0239435720843315	0.0243763128724311	0.0241693962843013	0.0241073053356616	0.0232743765060014	0.0225431113883012	0.0224668153311865	0.0206190345001554	0.0212817903048584	0.0218261812656757	0.0216732609081481	0.0216732609081481	0.0208664046443923	0.0198748482025387	0.0184933547041311	0.0183825031333745	0.0177818382773113	0.0177818382773113	0.0176439046009038	0.0171522368715709	0.0149028702594566	0.0145369963768387	0.0144949724195072	0.0148745198671133	0.0144949724195072	0.0138322166148042	0.0142604069123093	0.0131513807000568	0.0120620134117977	0.0114030758278652	0.011896464970293	0.0124971298263563	0.0124971298263563	0.0126877710662023	0.0121779356190269	0.0121779356190269	0.0125333910850472	0.0123732494606349	0.0123732494606349	0.0123732494606349	0.0138365660026135	0.0133267305554381	0.0127823395946208	0.0133636281650046	0.014667760554904	0.0149795227427443	0.0149795227427443	0.0145467819546447	0.0142775878340152	0.0142775878340152	0.0142775878340152	0.0143223204095555	0.0142370460751087	0.013929745736426	0.0134510987779823	0.0148030509136145	0.0153843394839983	0.0155251522134445	0.0155251522134445	0.0149807612526272	0.0138081700007489	0.0146150262645047	0.0162072475624214	0.0164436852439485	0.0162835436195362	0.0162835436195362	0.016374373028424	0.0168677621708518	0.0172435718225317	0.0189204483101515	0.0187130020065253	0.0197130719847474	0.019357004101505	0.0187156275163086	0.0187156275163086	0.0193783833210116	0.0195314815938902	0.0204326670207461	0.0211905281734702	0.0206636982113889	0.0201703090689611	0.0201703090689611	0.0195696442128979	0.0200794796600733	0.0193790029730519	0.0193790029730519	0.0198043761493759	0.0190235475070315	0.0184028604890995	0.0184028604890995	0.0174493793942963	0.0174839349079382	0.0169395439471209	0.0163582553767371	0.0156954995720342	0.0150541229868377	0.015175101587097	0.0159063667047973	0.0159063667047973	0.0154442957077265	0.0158770364958261	0.016539792300529	0.016147593271336	0.0167482581273993	0.0156701199076962	0.014938854789996	0.0148625587328813	0.0130516755114167	0.014258822276937	0.0141059019194094
0.0164808760466468	0.0153417924004829	0.0153417924004829	0.0150188925669589	0.0151261682805944	0.0151261682805944	0.0151509775478899	0.0151509775478899	0.0146610241522801	0.0151230951493509	0.0142968132707958	0.0146189675315641	0.0151633584923814	0.0151633584923814	0.0158946236100816	0.0156421607079177	0.0159247151395141	0.0170281627217813	0.0174203617509743	0.0154135826068893	0.015080689870762	0.0158615185131064	0.01446000285283	0.0150043938136473	0.0143837067957153	0.0142307864381877	0.0146635272262873	0.0147241755806155	0.0152175647230433	0.0145548089183403	0.0133551988681577	0.0133551988681577	0.0133551988681577	0.0134854868677269	0.0134377224176223	0.0123128956158486	0.0114791441433009	0.0119566175069407	0.0113940801807628	0.0119384711415801	0.0124159445052199	0.0136786533894523	0.0128262155782499	0.0128262155782499	0.0128262155782499	0.0132408728128127	0.0134469025961819	0.0124340165490569	0.0120287442188908	0.0111478918139817	0.0116412809564095	0.0119429862994808	0.0126986269211043	0.012003634653809	0.0114029697977457	0.0122296827263881	0.011850135278782	0.0114760864464839	0.0114885664784539	0.0113593882175103	0.0118527773599381	0.0115306230991698	0.0115306230991698	0.0109862321383525	0.0110887184932	0.00967367845026854	0.00939112401867215	0.00939112401867215	0.009902256551297	0.0086205691725322	0.0086205691725322	0.00924125619046422	0.00924125619046422	0.00931755224757896	0.00998030805228192	0.00947047260510653	0.00903773181700695	0.00897708346267873	0.0091464501249539	0.00890247572808924	0.00968330437043359	0.00968330437043359	0.0100628518180397	0.0100628518180397	0.0107256076227427	0.0107256076227427	0.0115593590952904	0.0110818857316506	0.0116444230578284	0.0111000320970112	0.0106225587333713	0.00980701533017525	0.0102122876603414	0.0102122876603414	0.0102122876603414	0.0106044866895344	0.0106044866895344	0.0106044866895344	0.0114718300167712	0.0114285404275388	0.0114285404275388	0.0106334459420397	0.0110661867301393	0.0116668515862025	0.0111734624437748	0.0111734624437748	0.0115778191586764	0.0107262969627385	0.0102363435671287	0.0106984145641995	0.00987213268564449	0.0101942869464128	0.0107386779072301	0.0101942869464128	0.010925552064113	0.0115068406344968	0.0117893950660932	0.0128928426483604	0.0117893950660932	0.0117893950660932	0.0114565023299659	0.0114565023299659	0.0108358153120339	0.0113802062728512	0.0107595192549192	0.0106065988973916	0.011532728827919	0.0110999880398194	0.0115933771822472	0.0115933771822472	0.0103937671320645	0.0103937671320645	0.0103937671320645	0.0100142196844584	0.0100142196844584	0.00935146387975544	0.00851771240720775	0.00899518577084756	0.00897703940548698	0.00945451276912679	0.0102700561723229	0.0102700561723229	0.00986478384215678	0.00986478384215678	0.00986478384215678	0.00947258481296378	0.00947258481296378	0.00947258481296378	0.00906731248279767	0.00864853107495936	0.00914192021738716	0.00895023641803061	0.00895023641803061	0.00901088477235882	0.00791683077386779	0.00836399625490402	0.00791683077386779	0.00839430413750759	0.00792931080583775	0.00829352168732201	0.00796062895119477	0.00763847469042647	0.00763847469042647	0.00763847469042647	0.00690720957272624	0.00632592100234246	0.00604336657074608	0.00604336657074608	0.00604336657074608	0.00637625930687332	0.00604336657074608	0.00666405358867809	0.00604336657074608	0.00611966262786082	0.00616173141463176	0.00498914016275341	0.00455639937465382	0.00449575102032561	0.00400236187789781	0.00520197192808047
0.0100276836544501	0.00958094639470521	0.00910347303106541	0.00910347303106541	0.0100136871828048	0.00895095132967078	0.0101684626972012	0.0101684626972012	0.0107310000233791	0.0107310000233791	0.0107310000233791	0.0107310000233791	0.0107310000233791	0.0107310000233791	0.010325727693213	0.010325727693213	0.0103858157080256	0.0103858157080256	0.0103858157080256	0.00989242656559781	0.00989242656559781	0.0095369710995775	0.0095369710995775	0.0106351314811493	0.0106351314811493	0.0112467705640281	0.0112467705640281	0.0112467705640281	0.0101017147471476	0.0101017147471476	0.00885767037206081	0.00865147896436822	0.00865147896436822	0.00981968551164588	0.00981968551164588	0.00941441318147978	0.00941441318147978	0.00941441318147978	0.00941441318147978	0.00941441318147978	0.00903486573387364	0.00924368555000337	0.00924368555000337	0.00871685558792213	0.00924368555000337	0.00924368555000337	0.00924368555000337	0.00887638156844905	0.00987645154667114	0.00909036615727851	0.00909036615727851	0.0095371034170234	0.0100145767806632	0.0100145767806632	0.0095664336259946	0.00970502748498706	0.00848751611745661	0.00848751611745661	0.00848751611745661	0.00792497879127876	0.00792497879127876	0.00792497879127876	0.00792497879127876	0.00792497879127876	0.00833025112144486	0.00833025112144486	0.00891153969182865	0.00827016310663223	0.00827016310663223	0.00876355224906003	0.00876355224906003	0.00911900771508034	0.00911900771508034	0.00802084733350852	0.00802084733350852	0.00740920825062976	0.00740920825062976	0.00740920825062976	0.00855426406751028	0.00921701987221325	0.00913555263789406	0.00934174404558665	0.00934174404558665	0.00817353749830899	0.0085788098284751	0.0085788098284751	0.0085788098284751	0.0085788098284751	0.0085788098284751	0.0085788098284751	0.00920617956663344	0.00925937290712689	0.00927636742203274	0.0087495374599515	0.00822270749787027	0.00822270749787027	0.00859001147942459	0.00822270749787027	0.0080087229090408	0.0080087229090408	0.0080087229090408	0.00756198564929591	0.00708451228565611	0.00708451228565611	0.0079947264373955	0.00810173750168731	0.0086115729488627	0.0086115729488627	0.00917411027504055	0.0086115729488627	0.0086115729488627	0.0086115729488627	0.0086115729488627	0.0086115729488627	0.0082063006186966	0.0082063006186966	0.00826638863350923	0.00762501204831281	0.00762501204831281	0.00713162290588502	0.00713162290588502	0.0067761674398647	0.0067761674398647	0.00787432782143653	0.00787432782143653	0.00848596690431528	0.00848596690431528	0.00848596690431528	0.00734091108743476	0.00734091108743476	0.00675962251705098	0.00655343110935839	0.00772163765663605	0.00772163765663605	0.00772163765663605	0.00731636532646994	0.00731636532646994	0.00731636532646994	0.00731636532646994	0.00731636532646994	0.00693681787886381	0.00714563769499354	0.00663580224781815	0.00663580224781815	0.00716263220989938	0.00716263220989938	0.00716263220989938	0.00716263220989938	0.00774392078028317	0.00737661679872884	0.00737661679872884	0.00782335405847374	0.00830082742211354	0.00830082742211354	0.00739061327037415	0.00799127812643739	0.00677376675890695	0.00677376675890695	0.00677376675890695	0.00677376675890695	0.00677376675890695	0.00677376675890695	0.00677376675890695	0.00717903908907305	0.00717903908907305	0.00776032765945684	0.00776032765945684	0.00776032765945684	0.00776032765945684	0.00825371680188463	0.00860917226790494	0.00860917226790494	0.00860917226790494	0.00751101188633312	0.00751101188633312	0.00689937280345437	0.00689937280345437	0.00689937280345437	0.00804442862033489	0.00862571719071867
0.00968374137941819	0.00968374137941819	0.00968374137941819	0.0107587212813276	0.0108408388791172	0.0104080980910177	0.0100677357608978	0.00909687325483016	0.00909687325483016	0.00869160092466406	0.00869160092466406	0.00912434171276364	0.00912434171276364	0.00870556030492534	0.00912434171276364	0.00912434171276364	0.00863095257033585	0.00863095257033585	0.00863095257033585	0.00863095257033585	0.00874858898831823	0.00874858898831823	0.00803783466783033	0.00754444552540253	0.00851530803147014	0.00890750706066314	0.00890750706066314	0.00890750706066314	0.00919947997331274	0.00959167900250574	0.00995898298406006	0.00995898298406006	0.00995898298406006	0.0104210539811308	0.010250715684146	0.0109819808018462	0.0113148735379735	0.0113148735379735	0.0113148735379735	0.0109353260903673	0.0109353260903673	0.0109353260903673	0.0109353260903673	0.0109353260903673	0.0106329225001784	0.00973426102758447	0.0103756376127809	0.00927219003051369	0.00912490751603859	0.00912490751603859	0.008692166727939	0.008692166727939	0.008692166727939	0.0085470281337618	0.00784683141608024	0.00880156148888722	0.00880156148888722	0.00878564571009923	0.00878564571009923	0.00919091804026533	0.00919091804026533	0.00875817725216575	0.00875817725216575	0.00917695866000405	0.00875817725216575	0.00925156639459354	0.00875817725216575	0.00875817725216575	0.00875817725216575	0.00915037628135875	0.00915037628135875	0.00864054083418336	0.00935129515467126	0.00984468429709906	0.00935129515467126	0.00848162276183845	0.00848162276183845	0.00848162276183845	0.00818964984918886	0.00779745081999586	0.00743014683844153	0.00743014683844153	0.00743014683844153	0.00799268416461939	0.0071384141383556	0.00640714902065538	0.00607425628452814	0.00607425628452814	0.00645380373213427	0.00645380373213427	0.00645380373213427	0.00645380373213427	0.00645380373213427	0.00716147965248933	0.00765486879491712	0.00765486879491712	0.0081169397919879	0.00864376975406914	0.0081169397919879	0.00817013313248135	0.00817013313248135	0.00817013313248135	0.00817013313248135	0.00924511303439073	0.00895992665062609	0.00821542367468621	0.00787506134456632	0.00739758798092652	0.00739758798092652	0.00699231565076041	0.00699231565076041	0.00742505643886	0.00742505643886	0.00742505643886	0.00742505643886	0.00742505643886	0.00742505643886	0.00742505643886	0.00742505643886	0.00742505643886	0.00754269285684238	0.00703285740966699	0.00632210308917909	0.00582871394675129	0.0067995764528189	0.0067143021183721	0.0067143021183721	0.0067143021183721	0.00739847406021469	0.00739847406021469	0.00776577804176902	0.00776577804176902	0.00776577804176902	0.0086200480680328	0.00832670486248439	0.00832670486248439	0.00865959759861163	0.00865959759861163	0.00865959759861163	0.0082800501510055	0.0082800501510055	0.0082800501510055	0.0082800501510055	0.0082800501510055	0.00797764656081655	0.00667371275805654	0.00667371275805654	0.00621164176098576	0.0065911892085919	0.00621164176098576	0.00577890097288618	0.00577890097288618	0.00577890097288618	0.00563376237870898	0.00517107310450347	0.00600482457705115	0.00515515732571547	0.00515515732571547	0.00515515732571547	0.00556042965588158	0.00556042965588158	0.00512768886778199	0.00512768886778199	0.0055464702756203	0.00512768886778199	0.00512768886778199	0.00512768886778199	0.00512768886778199	0.00512768886778199	0.005519887896975	0.00512768886778199	0.0058384431882699	0.0058384431882699	0.00633183233069769	0.0058384431882699	0.00544624415907689	0.00544624415907689	0.00544624415907689	0.0051542712464273	0.00476207221723429
0.00500618595104383	0.00500618595104383	0.00500618595104383	0.00500618595104383	0.00500618595104383	0.00500618595104383	0.00500618595104383	0.00500618595104383	0.00500618595104383	0.00500618595104383	0.00500618595104383	0.00500618595104383	0.00500618595104383	0.00460091362087772	0.00460091362087772	0.00424545815485741	0.00378338715778663	0.00378876171125644	0.00336998030341813	0.00336998030341813	0.00336998030341813	0.00302599114275332	0.00302599114275332	0.00302599114275332	0.00302599114275332	0.00302599114275332	0.00341819017194632	0.00358303368515746	0.00401577447325705	0.00544913092218096	0.00492230096009972	0.00492230096009972	0.00492230096009972	0.00492230096009972	0.0045549969785454	0.00554155787909529	0.00513628554892918	0.00513628554892918	0.00442930787569183	0.00516057299339205	0.00516057299339205	0.00550456215405687	0.00550456215405687	0.00665940355544816	0.00665940355544816	0.00624062214760986	0.00586107470000372	0.00586107470000372	0.00586107470000372	0.00586107470000372	0.00554931251216343	0.00554931251216343	0.00554931251216343	0.00554931251216343	0.00554931251216343	0.00554931251216343	0.00554931251216343	0.00554931251216343	0.00554931251216343	0.00554931251216343	0.00554931251216343	0.00554931251216343	0.00595458484232954	0.00554931251216343	0.00590476797818374	0.00636683897525452	0.00613685961345637	0.00678024582962302	0.00589939342471394	0.00589939342471394	0.00624338258537875	0.00624338258537875	0.00624338258537875	0.00624338258537875	0.00624338258537875	0.00624338258537875	0.00623073100379188	0.00585118355618575	0.00530679259536847	0.00453006264660407	0.00396752532042621	0.00396752532042621	0.00396752532042621	0.00433482930198054	0.00396752532042621	0.00338623675004243	0.00338623675004243	0.00368794209311368	0.00379150908020853	0.00306024396250831	0.00306024396250831	0.00271625480184349	0.00271625480184349	0.00200857888148844	0.0015614134004522	0.00235974225589664	0.00235974225589664	0.00235974225589664	0.00235974225589664	0.00267150444373693	0.00235974225589664	0.00235974225589664	0.00235974225589664	0.00235974225589664	0.00235974225589664	0.00235974225589664	0.00235974225589664	0.00235974225589664	0.00235974225589664	0.00235974225589664	0.00235974225589664	0.00235974225589664	0.00235974225589664	0.00235974225589664	0.00235974225589664	0.00200428678987633	0.00200428678987633	0.00200966134334614	0.00154759034627536	0.00154759034627536	0.00154759034627536	0.00120360118561054	0.00120360118561054	0.00120360118561054	0.00120360118561054	0.00120360118561054	0.00159580021480355	0.00214019117562083	0.00202854100290313	0.00250232670164622	0.00193978937546837	0.00193978937546837	0.00193978937546837	0.00193978937546837	0.00252107794585215	0.00252107794585215	0.00252107794585215	0.00252107794585215	0.00211580561568604	0.00284707073338627	0.00319105989405109	0.00319105989405109	0.00319105989405109	0.00434590129544238	0.00389873581440614	0.00347995440656783	0.0031004069589617	0.0031004069589617	0.0031004069589617	0.0031004069589617	0.0031004069589617	0.0031004069589617	0.0031004069589617	0.0031004069589617	0.0031004069589617	0.0031004069589617	0.0031004069589617	0.0031004069589617	0.0031004069589617	0.0031004069589617	0.0031004069589617	0.0031004069589617	0.0031004069589617	0.0031004069589617	0.00345586242498201	0.0031004069589617	0.00333249859423432	0.00332501176729005	0.00332501176729005	0.00332501176729005	0.00366900092795486	0.00332501176729005	0.00332501176729005	0.00332501176729005	0.00332501176729005	0.00332501176729005	0.00293281273809704	0.00293281273809704	0.00293281273809704	0.00258882357743222
0.00418558187551547	0.00418558187551547	0.00418558187551547	0.00428256749989461	0.00462655666055942	0.00443591542071341	0.00443591542071341	0.00398874993967717	0.00336806292174515	0.00336806292174515	0.00336806292174515	0.00398874993967717	0.00398874993967717	0.00398874993967717	0.00338808508361393	0.00338808508361393	0.00373207424427875	0.00379335741378003	0.00439402226984327	0.00435589473995789	0.00480306022099412	0.00480306022099412	0.00480306022099412	0.00480306022099412	0.00480306022099412	0.00480306022099412	0.00489181184842889	0.00489181184842889	0.00489181184842889	0.00489181184842889	0.00489181184842889	0.00454782268776407	0.00454782268776407	0.00454782268776407	0.00530346330938764	0.00454782268776407	0.00454782268776407	0.00454782268776407	0.00454782268776407	0.00454782268776407	0.00454782268776407	0.00454782268776407	0.00454782268776407	0.00454782268776407	0.00454782268776407	0.00405443354533627	0.00405443354533627	0.0049438164401178	0.00434315158405456	0.00434315158405456	0.00434315158405456	0.00434315158405456	0.00488754254487183	0.00424616595967542	0.00409281803885661	0.0039021767990106	0.00434934228004684	0.00497002929797885	0.00497002929797885	0.00497002929797885	0.00497002929797885	0.00434934228004684	0.00434934228004684	0.00495000713611008	0.00434934228004684	0.00434934228004684	0.00434934228004684	0.00434934228004684	0.00394406994988073	0.00394406994988073	0.00293436714266664	0.00293436714266664	0.00293436714266664	0.00293436714266664	0.00293436714266664	0.00327835630333146	0.00284561551523187	0.00284561551523187	0.00284561551523187	0.00284561551523187	0.00318960467589669	0.00284561551523187	0.00284561551523187	0.00284561551523187	0.00284561551523187	0.00284561551523187	0.00284561551523187	0.00284561551523187	0.00284561551523187	0.00284561551523187	0.00284561551523187	0.00284561551523187	0.00284561551523187	0.00284561551523187	0.00284561551523187	0.00333900465765967	0.00333900465765967	0.00305028661894139	0.00305028661894139	0.00305028661894139	0.00305028661894139	0.00305028661894139	0.00369166320413781	0.00349126140398535	0.00349126140398535	0.00349126140398535	0.00349126140398535	0.00304409592294911	0.00242340890501709	0.00242340890501709	0.00304409592294911	0.00304409592294911	0.00304409592294911	0.00304409592294911	0.00304409592294911	0.00304409592294911	0.00304409592294911	0.00344936825311521	0.00304409592294911	0.00360663324912696	0.00349126140398535	0.00349126140398535	0.00349126140398535	0.00349126140398535	0.00349126140398535	0.00349126140398535	0.00358001303142011	0.00358001303142011	0.00358001303142011	0.00358001303142011	0.00358001303142011	0.00358001303142011	0.00358001303142011	0.00358001303142011	0.00358001303142011	0.00358001303142011	0.00358001303142011	0.00358001303142011	0.00358001303142011	0.00358001303142011	0.00358001303142011	0.00358001303142011	0.00358001303142011	0.00358001303142011	0.00358001303142011	0.00308662388899232	0.00359645933616771	0.00397600678377384	0.0033753419277106	0.0033753419277106	0.0033753419277106	0.0033753419277106	0.00391973288852788	0.00273396534251418	0.00238997618184936	0.00238997618184936	0.0028371416628856	0.00301066319978138	0.00238997618184936	0.00238997618184936	0.00238997618184936	0.00176928916391734	0.00176928916391734	0.00176928916391734	0.00176928916391734	0.00176928916391734	0.00176928916391734	0.00176928916391734	0.00176928916391734	0.00176928916391734	0.00132212368288111	0.00132212368288111	0.00132212368288111	0.00132212368288111	0.00132212368288111	0.00166611284354593	0.000889382894781524	0.000889382894781524	0.000889382894781524	0.000889382894781524
0.00747058966682241	0.00747058966682241	0.00747058966682241	0.00747058966682241	0.00747058966682241	0.00747058966682241	0.00747058966682241	0.00799741962890365	0.00799741962890365	0.00799741962890365	0.00799741962890365	0.00755025414786741	0.00702342418578617	0.00702342418578617	0.00742869651595228	0.00742869651595228	0.00742869651595228	0.00690186655387104	0.00690186655387104	0.00653456257231672	0.00608739709128048	0.00608739709128048	0.00556056712919924	0.00596583945936535	0.00596583945936535	0.00596583945936535	0.00596583945936535	0.00596583945936535	0.00651023042018263	0.00598340045810139	0.00598340045810139	0.00557812812793528	0.00534603649266266	0.0046832806879597	0.00432782522193938	0.00378343426112211	0.00378343426112211	0.00378343426112211	0.00378343426112211	0.00378343426112211	0.00426090762476191	0.00426090762476191	0.00426090762476191	0.00426090762476191	0.00334579984742042	0.00334579984742042	0.00334579984742042	0.00338769299829055	0.00338769299829055	0.00338769299829055	0.00280640442790677	0.00280640442790677	0.00280640442790677	0.00280640442790677	0.00280640442790677	0.00280640442790677	0.00280640442790677	0.00227957446582553	0.00227957446582553	0.00227957446582553	0.00227957446582553	0.00272673994686176	0.003253569908943	0.003253569908943	0.0028482975787769	0.0028482975787769	0.00337512754085814	0.0028482975787769	0.00321560156033122	0.00366276704136746	0.00366276704136746	0.0041895970034487	0.0041895970034487	0.00378432467328259	0.00378432467328259	0.00378432467328259	0.00378432467328259	0.00378432467328259	0.00431115463536383	0.00323993371246531	0.00323993371246531	0.00387729767790404	0.00387729767790404	0.004540053482607	0.00543989990944459	0.00543989990944459	0.00543989990944459	0.00543989990944459	0.00543989990944459	0.00543989990944459	0.00496242654580479	0.00496242654580479	0.00496242654580479	0.00547226199298018	0.00587753432314629	0.00587753432314629	0.00587753432314629	0.00628280665331239	0.00583564117227615	0.00583564117227615	0.00641692974265994	0.00641692974265994	0.00641692974265994	0.00641692974265994	0.00641692974265994	0.00641692974265994	0.00641692974265994	0.00694375970474117	0.00694375970474117	0.00694375970474117	0.00694375970474117	0.00649659422370494	0.0059697642616237	0.0059697642616237	0.0063750365917898	0.0063750365917898	0.0063750365917898	0.0063750365917898	0.0063750365917898	0.00600773261023548	0.00556056712919924	0.00556056712919924	0.00503373716711801	0.00543900949728411	0.00543900949728411	0.00543900949728411	0.00543900949728411	0.00543900949728411	0.00598340045810139	0.00543900949728411	0.00543900949728411	0.00503373716711801	0.00480164553184538	0.00413888972714242	0.00378343426112211	0.00323904330030483	0.00323904330030483	0.00323904330030483	0.00323904330030483	0.00323904330030483	0.00371651666394463	0.00371651666394463	0.00371651666394463	0.00371651666394463	0.00280140888660314	0.00280140888660314	0.00280140888660314	0.00284330203747327	0.00239613655643703	0.00239613655643703	0.00181484798605325	0.00181484798605325	0.00181484798605325	0.00181484798605325	0.00181484798605325	0.00181484798605325	0.00181484798605325	0.00128801802397201	0.00128801802397201	0.00128801802397201	0.00173518350500825	0.00226201346708949	0.00226201346708949	0.00226201346708949	0.00185674113692338	0.00185674113692338	0.00185674113692338	0.00185674113692338	0.0022240451184777	0.00230390661795962	0.00185674113692338	0.00238357109900462	0.00185674113692338	0.00145146880675728	0.00145146880675728	0.00145146880675728	0.00145146880675728	0.00145146880675728	0.00145146880675728	0.00145146880675728
0.00253621403937487	0.00253621403937487	0.00253621403937487	0.00313687889543812	0.00345903315620642	0.00381448862222673	0.00381448862222673	0.00381448862222673	0.00364728137488176	0.00364728137488176	0.00364728137488176	0.00364728137488176	0.00364728137488176	0.00401458535643608	0.00467174616552764	0.00532362057651565	0.00499072784038841	0.00499072784038841	0.00452865684331763	0.00452865684331763	0.00452865684331763	0.00420650258254933	0.00420650258254933	0.00420650258254933	0.00420650258254933	0.00443859421782195	0.00443859421782195	0.00443859421782195	0.00443859421782195	0.00401981280998365	0.00401981280998365	0.00401981280998365	0.00401981280998365	0.00401981280998365	0.00401981280998365	0.00401981280998365	0.00401981280998365	0.00401981280998365	0.00401981280998365	0.00430251880114718	0.00430251880114718	0.00430251880114718	0.00430251880114718	0.00430251880114718	0.00430251880114718	0.00430251880114718	0.00430251880114718	0.00430251880114718	0.00430251880114718	0.00430251880114718	0.00490252347462544	0.00490252347462544	0.00490252347462544	0.00490252347462544	0.0039797043577939	0.00362424889177359	0.00362424889177359	0.00379145613911856	0.00379145613911856	0.00379145613911856	0.00379145613911856	0.00379145613911856	0.00379145613911856	0.00342415215756424	0.00342415215756424	0.00244800967361191	0.00244800967361191	0.00291008067068269	0.00291008067068269	0.00291008067068269	0.00323223493145099	0.00323223493145099	0.00323223493145099	0.00323223493145099	0.00323223493145099	0.00300014329617836	0.00300014329617836	0.00300014329617836	0.00340541562634447	0.00341892470401667	0.00341892470401667	0.00341892470401667	0.00341892470401667	0.00341892470401667	0.00341892470401667	0.00341892470401667	0.00341892470401667	0.00341892470401667	0.00382419703418277	0.00313621871285314	0.00313621871285314	0.00313621871285314	0.00313621871285314	0.00313621871285314	0.00313621871285314	0.00313621871285314	0.00313621871285314	0.00313621871285314	0.00313621871285314	0.00349167417887345	0.00218075857335456	0.00218075857335456	0.00218075857335456	0.0027814234294178	0.00250291283412286	0.00285836830014317	0.00285836830014317	0.00285836830014317	0.0026911610527982	0.0026911610527982	0.0026911610527982	0.0026911610527982	0.0026911610527982	0.00305846503435253	0.00341392050037284	0.00367915205228454	0.00367915205228454	0.00367915205228454	0.00321708105521377	0.00321708105521377	0.00321708105521377	0.00289492679444547	0.00289492679444547	0.00289492679444547	0.00312701842971809	0.00312701842971809	0.00312701842971809	0.00312701842971809	0.00353229075988419	0.00270823702187978	0.00270823702187978	0.00270823702187978	0.00270823702187978	0.00270823702187978	0.00270823702187978	0.00270823702187978	0.00270823702187978	0.00270823702187978	0.0030522261825446	0.00299094301304331	0.00299094301304331	0.00299094301304331	0.00299094301304331	0.00299094301304331	0.00299094301304331	0.00299094301304331	0.00299094301304331	0.00299094301304331	0.00299094301304331	0.00345301401011409	0.00394640315254189	0.00394640315254189	0.00394640315254189	0.00394640315254189	0.00362424889177359	0.00326879342575328	0.00326879342575328	0.00343600067309825	0.00326879342575328	0.00326879342575328	0.00326879342575328	0.00326879342575328	0.00326879342575328	0.00290148944419896	0.00290148944419896	0.00228080242626694	0.00228080242626694	0.00274287342333772	0.00228080242626694	0.00228080242626694	0.00260295668703524	0.00228080242626694	0.00228080242626694	0.00228080242626694	0.00228080242626694	0.00204871079099432	0.00204871079099432	0.00204871079099432	0.00287276452899873	0.00206221986866652
0.00203368812347682	0.00203368812347682	0.00203368812347682	0.00203368812347682	0.00203368812347682	0.00160094733537724	0.00191270952321753	0.00192310159614554	0.000959570750180822	0.000959570750180822	0.000959570750180822	0.000959570750180822	0.000959570750180822	0.000959570750180822	0.000959570750180822	0.00145295989260862	0.00145295989260862	0.00145295989260862	0.00145295989260862	0.00145295989260862	0.00145295989260862	0.00145295989260862	0.00145295989260862	0.000926129930527382	0.00145295989260862	0.00145295989260862	0.00145295989260862	0.00145295989260862	0.00145295989260862	0.00145295989260862	0.00102021910450904	0.00102021910450904	0.00102021910450904	0.00102021910450904	0.00102021910450904	0.00102021910450904	0.00102021910450904	0.00102021910450904	0.00102021910450904	0.00102021910450904	0.00102021910450904	0.00154704906659027	0.00154704906659027	0.00199421454762651	0.00199421454762651	0.00199421454762651	0.00199421454762651	0.00199421454762651	0.00199421454762651	0.00199421454762651	0.00199421454762651	0.00199421454762651	0.00199421454762651	0.00199421454762651	0.00242695533572609	0.00199421454762651	0.00199421454762651	0.00199421454762651	0.00263559113282293	0.00263559113282293	0.00263559113282293	0.00263559113282293	0.00263559113282293	0.00263559113282293	0.00263559113282293	0.00263559113282293	0.00214220199039513	0.00214220199039513	0.00214220199039513	0.00214220199039513	0.00214220199039513	0.00214220199039513	0.00266903195247637	0.00214220199039513	0.00214220199039513	0.00214220199039513	0.00161537202831389	0.00161537202831389	0.00161537202831389	0.00161537202831389	0.00204811281641348	0.00204811281641348	0.00204811281641348	0.00204811281641348	0.00204811281641348	0.00204811281641348	0.00204811281641348	0.00204811281641348	0.00204811281641348	0.00204811281641348	0.00204811281641348	0.00204811281641348	0.00152128285433224	0.001074117373296	0.001074117373296	0.001074117373296	0.001074117373296	0.001074117373296	0.001074117373296	0.001074117373296	0.001074117373296	0.001074117373296	0.001074117373296	0.001074117373296	0.001074117373296	0.001074117373296	0.001074117373296	0.001074117373296	0.000432740788099584	0.000432740788099584	0.000432740788099584	0.000432740788099584	0.000432740788099584	0.000432740788099584	0.000432740788099584	0.000926129930527382	0.000432740788099584	0.000432740788099584	0.000432740788099584	0.000432740788099584	0.000432740788099584	0.000432740788099584	0.000432740788099584	0.000432740788099584	0.000432740788099584	0.000959570750180822	0.000432740788099584	0.000432740788099584	0.000432740788099584	0.000432740788099584	0	0	0	0	0	0	0	0	0	0	0	0.000526829962081237	0	0.000447165481036237	0.000447165481036237	0.000447165481036237	0.000447165481036237	0.000447165481036237	0.000447165481036237	0.000447165481036237	0.000447165481036237	0.000447165481036237	0.000447165481036237	0.000447165481036237	0.000447165481036237	0.000447165481036237	0.000447165481036237	0.000447165481036237	0.00108854206623265	0.00108854206623265	0.00108854206623265	0.00108854206623265	0.00108854206623265	0.00108854206623265	0.00108854206623265	0.00108854206623265	0.00108854206623265	0.00108854206623265	0.00108854206623265	0.00108854206623265	0.00108854206623265	0.00108854206623265	0.00108854206623265	0.00108854206623265	0.00108854206623265	0.00108854206623265	0.00108854206623265	0.00108854206623265	0.00108854206623265	0.00152128285433224
0.00106466390434355	0.00106466390434355	0.00106466390434355	0.00106466390434355	0.00106466390434355	0.00106466390434355	0.00135663681699314	0.00135663681699314	0.00171209228301345	0.00220548142544125	0.00220548142544125	0.00220548142544125	0.00220548142544125	0.00220548142544125	0.00220548142544125	0.00220548142544125	0.00265264690647749	0.00265264690647749	0.00265264690647749	0.00265264690647749	0.00265264690647749	0.00265264690647749	0.00265264690647749	0.00265264690647749	0.00265264690647749	0.0030081023724978	0.0030081023724978	0.00307062567706928	0.0030081023724978	0.00274348323780816	0.00231074244970858	0.00231074244970858	0.00231074244970858	0.00231074244970858	0.00194343846815425	0.00194343846815425	0.00194343846815425	0.00194343846815425	0.00194343846815425	0.00194343846815425	0.00194343846815425	0.00194343846815425	0.00231074244970858	0.00231074244970858	0.00231074244970858	0.00231074244970858	0.00231074244970858	0.00231074244970858	0.00231074244970858	0.00231074244970858	0.00231074244970858	0.00231074244970858	0.00231074244970858	0.00231074244970858	0.00231074244970858	0.00231074244970858	0.00231074244970858	0.00201876953705898	0.00166331407103867	0.00116992492861087	0.00116992492861087	0.00116992492861087	0.00116992492861087	0.00116992492861087	0.00116992492861087	0.00116992492861087	0.000722759447574634	0.000722759447574634	0.000722759447574634	0.000722759447574634	0.000722759447574634	0.000722759447574634	0.000722759447574634	0.000722759447574634	0.000722759447574634	0.000367303981554322	0.000367303981554322	0.000367303981554322	0.000367303981554322	0.00106466390434355	0.000631923116243962	0.000631923116243962	0.000631923116243962	0.000999227097798284	0.000631923116243962	0.000631923116243962	0.000631923116243962	0.000631923116243962	0.000631923116243962	0.000631923116243962	0.000631923116243962	0.000631923116243962	0.00026461913468964	0.00026461913468964	0.00026461913468964	0.00026461913468964	0.00026461913468964	0.00026461913468964	0.00026461913468964	0.00026461913468964	0.00026461913468964	0.00026461913468964	0.00026461913468964	0.00026461913468964	0.00026461913468964	0.00026461913468964	0.000556592047339235	0.00026461913468964	0.000620074600709952	0.00111346374313775	0.00111346374313775	0.00111346374313775	0.00111346374313775	0.00111346374313775	0.00111346374313775	0.00111346374313775	0.00156062922417399	0.00156062922417399	0.00156062922417399	0.00156062922417399	0.00156062922417399	0.00156062922417399	0.00156062922417399	0.00156062922417399	0.00156062922417399	0.0019160846901943	0.0019160846901943	0.0019160846901943	0.0019160846901943	0.00165146555550466	0.00165146555550466	0.00165146555550466	0.00165146555550466	0.00165146555550466	0.00165146555550466	0.00165146555550466	0.00165146555550466	0.00165146555550466	0.00165146555550466	0.00165146555550466	0.00165146555550466	0.00165146555550466	0.00201876953705898	0.00201876953705898	0.00201876953705898	0.00201876953705898	0.00201876953705898	0.00201876953705898	0.00201876953705898	0.00201876953705898	0.00201876953705898	0.00201876953705898	0.00201876953705898	0.00201876953705898	0.00201876953705898	0.00201876953705898	0.00201876953705898	0.00201876953705898	0.00166331407103867	0.00116992492861087	0.00116992492861087	0.00116992492861087	0.00116992492861087	0.00116992492861087	0.00116992492861087	0.00116992492861087	0.000722759447574634	0.000722759447574634	0.000722759447574634	0.000722759447574634	0.000722759447574634	0.000722759447574634	0.000722759447574634	0.000722759447574634	0.000722759447574634	0.000367303981554322	0.000367303981554322	0.000367303981554322	0.000631923116243962	0.000631923116243962
0.00115553060447583	0.00115553060447583	0.00115553060447583	0.00115553060447583	0.00115553060447583	0.00115553060447583	0.00115553060447583	0.00115553060447583	0.00161760160154661	0.00161760160154661	0.00161760160154661	0.00161760160154661	0.00161760160154661	0.00161760160154661	0.00161760160154661	0.00182116408098219	0.00182116408098219	0.00182116408098219	0.00182116408098219	0.00182116408098219	0.00182116408098219	0.00145386009942787	0.00145386009942787	0.00145386009942787	0.00126936857699624	0.00126936857699624	0.00179619853907748	0.00179619853907748	0.00179619853907748	0.00179619853907748	0.00179619853907748	0.00119246343858759	0.00119246343858759	0.00173685439940487	0.00119246343858759	0.00119246343858759	0.00119246343858759	0.00119246343858759	0.00119246343858759	0.00119246343858759	0.00119246343858759	0.00119246343858759	0.00119246343858759	0.00119246343858759	0.00119246343858759	0.00119246343858759	0.00119246343858759	0.00119246343858759	0.00119246343858759	0.00119246343858759	0.00119246343858759	0.00119246343858759	0.00119246343858759	0.00119246343858759	0.00119246343858759	0.00119246343858759	0.00119246343858759	0.00119246343858759	0.000730392441516816	0.000730392441516816	0.000730392441516816	0.000730392441516816	0.000730392441516816	0.000730392441516816	0.000730392441516816	0.000526829962081237	0.000526829962081237	0.000526829962081237	0.000526829962081237	0.000526829962081237	0.000526829962081237	0.000894133943635559	0.000894133943635559	0.000894133943635559	0.00107862546606719	0.00107862546606719	0.00055179550398595	0.00055179550398595	0.00055179550398595	0.00055179550398595	0.00055179550398595	0.00115553060447583	0.00115553060447583	0.00115553060447583	0.00115553060447583	0.00115553060447583	0.00115553060447583	0.00115553060447583	0.00115553060447583	0.00115553060447583	0.00115553060447583	0.00115553060447583	0.00115553060447583	0.00115553060447583	0.00115553060447583	0.00115553060447583	0.00115553060447583	0.00115553060447583	0.00115553060447583	0.00115553060447583	0.00115553060447583	0.00115553060447583	0.00115553060447583	0.00115553060447583	0.00115553060447583	0.00115553060447583	0.00115553060447583	0.00161760160154661	0.00161760160154661	0.00161760160154661	0.00161760160154661	0.00161760160154661	0.00161760160154661	0.00161760160154661	0.00161760160154661	0.00182116408098219	0.00182116408098219	0.00182116408098219	0.00182116408098219	0.00182116408098219	0.00182116408098219	0.00145386009942787	0.00145386009942787	0.00145386009942787	0.00126936857699624	0.00126936857699624	0.00179619853907748	0.00179619853907748	0.00179619853907748	0.00179619853907748	0.00179619853907748	0.00119246343858759	0.00119246343858759	0.00119246343858759	0.00119246343858759	0.00119246343858759	0.00119246343858759	0.00119246343858759	0.00119246343858759	0.00119246343858759	0.00119246343858759	0.00119246343858759	0.00119246343858759	0.00119246343858759	0.00119246343858759	0.00119246343858759	0.00119246343858759	0.00119246343858759	0.00119246343858759	0.00119246343858759	0.00119246343858759	0.00119246343858759	0.00119246343858759	0.00119246343858759	0.00119246343858759	0.00119246343858759	0.00119246343858759	0.00119246343858759	0.000730392441516816	0.000730392441516816	0.000730392441516816	0.000730392441516816	0.000730392441516816	0.000730392441516816	0.000730392441516816	0.000526829962081237	0.000526829962081237	0.000526829962081237	0.000526829962081237	0.000526829962081237	0.000526829962081237	0.000894133943635559	0.000894133943635559	0.000894133943635559	0.00107862546606719	0.00107862546606719	0.00055179550398595	0.00055179550398595	0.00055179550398595	0.00055179550398595
0.00153191810363896	0.00153191810363896	0.00113971907444596	0.00113971907444596	0.00113971907444596	0.00113971907444596	0.00113971907444596	0.00113971907444596	0.00113971907444596	0.00113971907444596	0.00113971907444596	0.00113971907444596	0.00113971907444596	0.00113971907444596	0.00113971907444596	0.00148370823511077	0.00148370823511077	0.00148370823511077	0.00148370823511077	0.00148370823511077	0.00117194604727048	0.00117194604727048	0.00117194604727048	0.00117194604727048	0.00117194604727048	0.000849791786502185	0.000849791786502185	0.000849791786502185	0.000849791786502185	0.000849791786502185	0.000849791786502185	0.000849791786502185	0.000849791786502185	0.000849791786502185	0.000849791786502185	0.000849791786502185	0.000687978321329635	0.000687978321329635	0.000687978321329635	0.000687978321329635	0.000687978321329635	0.000687978321329635	0.000687978321329635	0.000687978321329635	0.000687978321329635	0.000687978321329635	0.000687978321329635	0.000687978321329635	0.000687978321329635	0.000687978321329635	0.000343989160664818	0.000736188189857822	0.000343989160664818	0.000343989160664818	0.000343989160664818	0.000343989160664818	0.000343989160664818	0.000343989160664818	0.000343989160664818	0.000343989160664818	0.000343989160664818	0.000343989160664818	0.000343989160664818	0.000343989160664818	0.000343989160664818	0	0	0	0	0.00031176218784029	0	0	0	0	0.0003221542607683	0	0	0	0	0	0	0	0	0	0	0.00016181346517255	0	0	0	0	0	0	0	0	0	0	0	0	0	0	0.000343989160664818	0.000343989160664818	0.000343989160664818	0.000343989160664818	0.000343989160664818	0.000343989160664818	0.000343989160664818	0.000343989160664818	0.000343989160664818	0.000343989160664818	0.000343989160664818	0.000343989160664818	0.000343989160664818	0.000343989160664818	0.000343989160664818	0.000687978321329635	0.000687978321329635	0.000687978321329635	0.000687978321329635	0.000687978321329635	0.000687978321329635	0.000687978321329635	0.000687978321329635	0.000687978321329635	0.000687978321329635	0.000687978321329635	0.000687978321329635	0.000687978321329635	0.000687978321329635	0.000687978321329635	0.000687978321329635	0.000687978321329635	0.000687978321329635	0.000687978321329635	0.000687978321329635	0.000687978321329635	0.000687978321329635	0.000687978321329635	0.000687978321329635	0.000687978321329635	0.000687978321329635	0.000687978321329635	0.000687978321329635	0.000687978321329635	0.000687978321329635	0.000687978321329635	0.000687978321329635	0.000687978321329635	0.000687978321329635	0.000687978321329635	0.000343989160664818	0.000343989160664818	0.000343989160664818	0.000343989160664818	0.000343989160664818	0.000343989160664818	0.000343989160664818	0.000343989160664818	0.000343989160664818	0.000343989160664818	0.000343989160664818	0.000343989160664818	0.000343989160664818	0.000343989160664818	0.000343989160664818	0	0	0	0	0	0	0	0	0	0	0	0	0	0	0
