1.29369833920849	1.29199096335689	1.28858190569528	1.27743459014732	1.25723157222622	1.26303657380834	1.2610280495348	1.25270536088454	1.24252116143814	1.24319673061745	1.23676172892491	1.23280816926676	1.2340310197878	1.22889424552407	1.22716262214559	1.21933775972523	1.22423609818383	1.21699847149248	1.22405037081096	1.23032089780211	1.23057885248817	1.23304616129447	1.22934414051654	1.22587827240385	1.22830251681885	1.22960922212303	1.23839053452976	1.23715443523457	1.24611411133989	1.22781165263072	1.23488597582484	1.22094453757984	1.20590371358061	1.20446600458744	1.19122650229206	1.18315777426032	1.18209716945552	1.1782552329176	1.18018494073723	1.17129571640025	1.17634429661194	1.16677769640143	1.16415598001447	1.16279176743228	1.1560353888422	1.16772463231549	1.15914454264308	1.16110300598354	1.16495583668003	1.1720093940064	1.164935004312	1.18029736986657	1.18782495797666	1.19491729750223	1.19476508433082	1.20083869343646	1.20076514553184	1.1978082908894	1.19029800519994	1.18731958575536	1.190517610731	1.19668611235091	1.20022534180284	1.19667756870477	1.19151256504142	1.19505615454185	1.20065384540675	1.19876167563886	1.19559154313367	1.19006307443432	1.20142642208973	1.19744221737397	1.19422424438229	1.19199737232943	1.1892125007272	1.1880222845666	1.19354416712566	1.20005745590853	1.19075225808083	1.19056910591435	1.18292538129768	1.17247406848754	1.16212490442656	1.16263888269025	1.15419475710328	1.15012713407099	1.14782067865339	1.13830488638672	1.13549399525019	1.13291074377521	1.12223797990808	1.11301354939029	1.1173748877887	1.11267728170584	1.11626411912387	1.11442675446803	1.11761766920557	1.1210878687834	1.12099313076885	1.12115263365706	1.11507874307017	1.1098950960849	1.10715385014474	1.11203200147234	1.11167933376083	1.10991138998419	1.10667803617368	1.09296876673976	1.08908064277538	1.07737536617175	1.06749791840876	1.04709815490737	1.04650934683154	1.04317813378231	1.0311024335455	1.0119565422257	1.00843762668881	1.00018371400775	0.994099844973684	0.986875103515631	0.991466701211558	0.98476203934699	0.982886201535957	0.968938946307137	0.965009779923956	0.957444392076239	0.958465263113108	0.960443560307432	0.951235807856215	0.935949957740849	0.941253025612792	0.932757678572771	0.922144916535033	0.915165221874366	0.921020511154651	0.910838744073082	0.904110460100733	0.902452413432121	0.892374747401642	0.884663583631637	0.879014603842752	0.87852778552886	0.870571757611627	0.874399221171094	0.878076513856152	0.873560759558034	0.875145551451365	0.868189115603065	0.859879153967005	0.859649892516459	0.854344167406106	0.857330488740632	0.858632178334518	0.86356435074707	0.848536261423767	0.858333717854852	0.851518560770668	0.84412140509407	0.84067105976163	0.829762173940906	0.820936369913718	0.819544117294097	0.815553679242633	0.816681807650103	0.80647210519394	0.806824064460196	0.796857336628868	0.792305007926111	0.798287657835858	0.794003532208998	0.801051685045948	0.800576866041369	0.797311477709443	0.797711804722236	0.803725524306875	0.797804385266025	0.804654840285991	0.814144723833807	0.81371903043829	0.809545914286509
1.02955300231337	1.02261276142476	1.01452566134049	1.00821073309851	1.00684039151332	0.989626726931625	0.984850427619626	0.988917924899939	0.983547384724676	0.976310898298604	0.976413770859799	0.973509189378423	0.969537547402341	0.955935055743729	0.950986475864842	0.95218911285143	0.949803882205452	0.952620838680765	0.955418256618789	0.963373234405283	0.963024030505791	0.957392609311093	0.961457320576628	0.960127566760108	0.959047568040385	0.957753692077837	0.9605923502072	0.953829829061708	0.952985835309109	0.948061080297844	0.939026776230127	0.935738094389766	0.927306040196168	0.929606063895676	0.920683616666983	0.925339687699703	0.930189979238266	0.930888638014021	0.934166643612606	0.938618638963576	0.938768400726971	0.937715183310255	0.932122196171493	0.934853872399251	0.934371207118833	0.937325867057719	0.938888854520032	0.944189508139154	0.947704139498911	0.948923302674477	0.949226815507969	0.940400431270272	0.931696129417569	0.938867660746424	0.932089972609529	0.923534727971515	0.91761855264435	0.906991831409453	0.901843229227252	0.900610334576863	0.899330484640774	0.907278545549741	0.910712625018077	0.909384541656189	0.917976886572303	0.922028844244889	0.917425839138266	0.92401548898169	0.934683757766761	0.930100688432262	0.921888929261866	0.925742870566143	0.922281280953615	0.919639259146777	0.919306623744377	0.922702798010706	0.924172495188401	0.921175604669994	0.920909198065805	0.916335627851511	0.902150457966541	0.897927199822896	0.88697642136207	0.883664223660019	0.875294297624195	0.868915405849644	0.873090409606046	0.865321841164293	0.86175273336377	0.857318129661928	0.853319230726336	0.852691081960185	0.861124048629187	0.858032277905069	0.859487888425753	0.855177752965938	0.851453511861912	0.846702311241774	0.839535585371099	0.831724796664509	0.823896334585673	0.81976767866344	0.810451553481229	0.806184252173671	0.810532158200288	0.801153066647235	0.796468121858861	0.794319125154956	0.797110330369072	0.784968693612561	0.779389568947448	0.771713474727131	0.768174625013805	0.760240804691498	0.765370416647403	0.760083077708843	0.750046913082231	0.756186244696084	0.757274755053475	0.75995357196618	0.765614952862143	0.764206233360084	0.75939782183299	0.748637786851938	0.743469173632157	0.737135099767337	0.730025505123521	0.723575339545137	0.717121059549302	0.714694447008418	0.696992395086572	0.691122928485251	0.696104786892548	0.694458318377062	0.688494400241281	0.68685837769594	0.680368521770449	0.677293385156921	0.668734960867527	0.662528554724136	0.660700494938673	0.65851432728165	0.66245167024048	0.659075332331867	0.665341040968828	0.663291501689484	0.661070754864614	0.667136018844387	0.667584271565004	0.666984873472938	0.668411873327475	0.669030364905013	0.659548193125887	0.658828616658027	0.653536507557478	0.647882812896385	0.646881460176107	0.64407499117216	0.652608581604221	0.641921095354848	0.637422227593713	0.635464883766446	0.635991205944059	0.632353896443296	0.630069491821246	0.628623974190009	0.628270164274609	0.627164160074495	0.62587653862742	0.621052656468603	0.616196721847689	0.621431537659554	0.624593539891014	0.625504173730215	0.624595814847619	0.624406189439974	0.619079277161833	0.613747845387983	0.618643664293268	0.611715653757639
0.747522227190318	0.754803547536065	0.752607495100578	0.751857712340251	0.748339172538987	0.751965258148532	0.75192514412529	0.762906359337714	0.769122864291033	0.759418154560773	0.760525420222075	0.754785884925249	0.759568591481927	0.754121633816356	0.746049015355868	0.742865102239337	0.742199204297475	0.743927472669184	0.749208753711188	0.743232714891892	0.743915093769349	0.741625115658425	0.735457789676103	0.738578042446227	0.725689241762213	0.721910383535782	0.70990447389503	0.702431725647406	0.698536250134942	0.701070475002855	0.6920022501091	0.695374039762105	0.690542122881568	0.690351117221462	0.690560465600143	0.689593780406367	0.690257888432856	0.689412548662153	0.685928523191746	0.679580433278439	0.681136140957797	0.676038812665474	0.681181934673921	0.68021064064564	0.681614651938291	0.683318442162529	0.687979533338403	0.68669919343959	0.690212673620191	0.688270988370766	0.680047996427486	0.674338560356692	0.672229835405694	0.676138732064984	0.673521939379725	0.674164090902437	0.679578644839021	0.681618486590323	0.686560183274134	0.677312691368409	0.670816976880056	0.673006062265509	0.673927730590419	0.663351996266749	0.663272439212675	0.660892830449798	0.657174282388209	0.657400838087607	0.648750909671594	0.639792031670964	0.628711586735892	0.627445446767052	0.633852282422041	0.630374519581916	0.631518343270508	0.629626466354651	0.631697996665789	0.633697940030076	0.628236225617839	0.627375754882619	0.622447678904936	0.61774098772657	0.619087942140932	0.618593927463196	0.619751785835457	0.617504154585941	0.620400504570229	0.619643982574621	0.629672686719806	0.630655550370307	0.622173279747724	0.626883021832945	0.631518445548182	0.63773627364699	0.6330642954048	0.631545837900683	0.628169845585945	0.627090480772246	0.626547653264947	0.624131738694495	0.619668377520178	0.619170962683449	0.614564551853032	0.620356088118771	0.609676563112034	0.610580018847263	0.61023393673829	0.604454148025159	0.597680931130267	0.590938563131063	0.589303107395943	0.587648821744421	0.5879364997041	0.589809889759443	0.592068551271403	0.586231156796769	0.580658150203171	0.580094428994017	0.571246729586118	0.565390926238272	0.560715271502917	0.557603543971483	0.563706287426055	0.561468317978426	0.55385048513668	0.561418770949064	0.559884732791279	0.554318406185744	0.551632528076817	0.54793610546792	0.550664208933845	0.546064276861195	0.551447941047084	0.558076245287503	0.547745189707901	0.54653543309271	0.541215069744473	0.542591019351971	0.53782668116605	0.532580934843012	0.529737463164649	0.527188313162949	0.524935082653071	0.527175102631927	0.521630903986421	0.518322118157214	0.517441051305575	0.513610772570635	0.512244701576443	0.503982710571045	0.499081942216909	0.493383701005898	0.487147926942059	0.479090757914646	0.477966674004501	0.471827701440753	0.475411751844465	0.470837753312128	0.471339622718495	0.470912147011529	0.468724665264385	0.467498186180991	0.467210507857086	0.468688555827584	0.463164328425808	0.459280976111559	0.453316625325255	0.452829245404613	0.449161783027831	0.449866703743795	0.450127825535877	0.452655787846041	0.451196080081843	0.450597594515079	0.451015822869396	0.443821870481432	0.438435616334026	0.436598137110935	0.441442358622725	0.440382542577269
0.649941944282969	0.646044756597127	0.646144533533251	0.643562743311093	0.640720161599936	0.637575277559676	0.642882980351169	0.646492472002497	0.645688163582252	0.643202990621388	0.636839140275351	0.630976330731456	0.628184418511662	0.621186080718408	0.623764537795678	0.624842268923793	0.626329546344236	0.62320617065806	0.614299612576396	0.619591893699865	0.617549077833621	0.606813829658226	0.608160606339445	0.609037515265969	0.608889662568369	0.608051663700988	0.60199289280409	0.60132321201949	0.598570189094579	0.593301030369329	0.592823410683405	0.591334037731959	0.593735686162723	0.595794659789509	0.591919113272467	0.593885556207773	0.597064209116572	0.592673610197604	0.588690628702694	0.578487314088852	0.577028724345716	0.573238013998463	0.567433475698238	0.568173204699723	0.570201512642502	0.58243866578293	0.578137288897589	0.588265875053685	0.59027967560752	0.597728846083459	0.5885170515138	0.588632128858544	0.586060994878368	0.584899630023211	0.586433843094451	0.579988512352554	0.5781930235225	0.579217074800657	0.573034515685857	0.565681131361039	0.563732410379411	0.567543003286343	0.558100285273908	0.551455957474913	0.556820759058844	0.553391758311486	0.550040959692481	0.547602088636765	0.54438314702555	0.539096879321353	0.531603431107692	0.530713459471772	0.530661480420387	0.53219341122997	0.537644167183805	0.538960008510293	0.535180122881035	0.536464009485756	0.529468067723583	0.528015336061581	0.526305103497824	0.519531872866071	0.520481182229661	0.52370537170966	0.523308151757359	0.525706658396264	0.519202542011024	0.517939707271939	0.521641182383438	0.529189851665074	0.521881265759615	0.526864237227693	0.525556628011639	0.523874358387348	0.521160457265711	0.520617002340801	0.517640515884648	0.509559079315224	0.504985286536126	0.503189128134287	0.504082110980051	0.509013367142014	0.511684454551175	0.508488591052394	0.513695937504983	0.511532944796732	0.507533134786374	0.493827325804229	0.490137665232158	0.485508285345632	0.477824310349452	0.468948832100507	0.469049497221269	0.468860331166587	0.470589579063724	0.473234323484323	0.465865060458992	0.462803374087174	0.469121808576773	0.461171078811836	0.464211112776179	0.465799001062521	0.46921426297645	0.461401972656072	0.472164477635572	0.472057495505572	0.467550191525886	0.471617783108113	0.474630012918995	0.472969244007598	0.472097012862416	0.473088196733298	0.476483654222457	0.475266382112046	0.474656726981363	0.470845591353036	0.465834832381887	0.464031923406149	0.458366513015962	0.45798889728834	0.457539550692862	0.455837372095706	0.454575504533263	0.449661864692397	0.453729153895766	0.44997615370588	0.44043963138896	0.435623282395357	0.435160869187675	0.433694606978503	0.430699356360989	0.424505964791138	0.422821253141072	0.421699095238305	0.418230637196207	0.418542777034483	0.419137176328152	0.422774549902168	0.426734725982481	0.426891870075139	0.427856006279429	0.425735008400227	0.421493175347017	0.416139832175432	0.406253934497582	0.403851866731289	0.401068530793257	0.396013996528718	0.393890149875925	0.397329835004684	0.403466948515718	0.398184782259179	0.403412915005834	0.40704746533268	0.414449026763417	0.408501920965415	0.408441999429782	0.407710005995506	0.406335066032815	0.405162752320637
0.449467888066849	0.450769344594019	0.454191000134604	0.450170316792984	0.448501749834365	0.450517526479676	0.452701270993748	0.450544504500096	0.455788415745782	0.454533164166607	0.453279080924522	0.444340265771645	0.437745301659909	0.43379303814325	0.436033400987637	0.433143858610704	0.42672352554317	0.428765368621314	0.426670155929696	0.424496036467321	0.426948848012451	0.426546981773163	0.429240762702198	0.429336656059187	0.426920419002501	0.426972239998763	0.421286679339871	0.414783568730314	0.411882934817922	0.409221679718778	0.408061581787487	0.405451070336005	0.401407051011296	0.399916801279468	0.397680211710062	0.39991491493499	0.402441940949447	0.399935668630036	0.406282801946092	0.405981927832672	0.397686146144533	0.401054043896114	0.3964426622793	0.399729915487146	0.395412975958779	0.398034917042272	0.400301071623955	0.398578084071595	0.404466201090918	0.403752228026981	0.403406864039059	0.403339055822761	0.412367333459344	0.411645770408824	0.409821410290948	0.412414292436856	0.411792760467509	0.415147420416741	0.412322110721769	0.411506558650554	0.413352268732205	0.410148427431241	0.408076390476263	0.405171862811254	0.402685064749048	0.402692870154378	0.398984150771537	0.398708473941214	0.398656782336455	0.394668074596002	0.395630976483152	0.390013841101358	0.387245961946548	0.393149642455467	0.397574716737334	0.399630260352128	0.397146488516684	0.395533515097201	0.397917493062988	0.395660599313389	0.394199356840609	0.393766080444131	0.389788314016071	0.386231473144462	0.386115238313171	0.3844697872324	0.383662422915477	0.385015554595828	0.38316527404067	0.385817578840806	0.388761087062209	0.391538956772239	0.390627901628544	0.388112994476189	0.389224527600213	0.39109049354433	0.390922875758527	0.389599330886663	0.386109008726702	0.384445808575272	0.377774611661806	0.369106529939168	0.372772284158857	0.371087218044572	0.366577264992266	0.368585004268707	0.367093281724093	0.366198443654231	0.357316604080417	0.357790223145996	0.353695968721262	0.348719905527388	0.34873060171662	0.348219131686349	0.339260072397346	0.336620934967192	0.334565108752713	0.331530655872229	0.327563249243224	0.322368490505096	0.320227172086426	0.319587304519702	0.315991999313596	0.315839216350983	0.31467163132682	0.316799317846359	0.318706875827823	0.321389874090265	0.319956630364803	0.315653015393634	0.319155697778269	0.318007865021603	0.313215062491277	0.316553681576921	0.313525841653165	0.31111447159638	0.303089424037547	0.299284934494699	0.297453453649687	0.300247841698497	0.29833515220411	0.294168165045091	0.299993817112014	0.297612625253246	0.29706217031039	0.29696799601602	0.293291312795331	0.293562703084951	0.293971695160152	0.290779855757078	0.292770803275566	0.287115907172375	0.281897605728828	0.279682632272502	0.276314731359913	0.275958719907626	0.274891966142696	0.269661414542694	0.271690061834315	0.26945347226491	0.26872890184624	0.271958958582984	0.274095564730724	0.279491195176841	0.280420247165447	0.275188527196606	0.276154281760868	0.272086563871587	0.274312581729347	0.272035610716004	0.272903643767263	0.274983382864566	0.275312678142462	0.279130238953053	0.276365476241045	0.275625768405588	0.275933505899535	0.283560794344178	0.282315901721641	0.280443576902497
0.365811613129682	0.366411712791526	0.361504467007324	0.358930059690269	0.355372164599706	0.356634201121113	0.356479760194568	0.35741546259363	0.355458793161828	0.35310947053473	0.355102369952105	0.36128665266629	0.357668951803987	0.361314695377007	0.359908948643161	0.358743332015434	0.354910505652496	0.350635472897159	0.353185554256253	0.350375457692423	0.353248518897774	0.36043721951184	0.35988493242129	0.356365507526809	0.357290809391018	0.356025469331757	0.356321936374261	0.356588525757715	0.356411734743191	0.35317262894865	0.352917385878792	0.351606726627308	0.348005729986794	0.348122958378149	0.348922965009789	0.340568421307735	0.341337756042041	0.342255542078975	0.346814253891337	0.34342005159869	0.344885554915394	0.340604796632836	0.33500825306027	0.339978000194308	0.339793579663871	0.337290372555556	0.337489269747164	0.338325583988733	0.332422986012022	0.334114126051291	0.334747051811455	0.335309615517691	0.328709772903259	0.330217370018464	0.325946064550539	0.332830575985846	0.333402386030915	0.330297365937319	0.335294292293264	0.33482995746025	0.332572056658427	0.329220271290213	0.326921164498161	0.330708603469908	0.332857864049083	0.334805170074598	0.334511714508459	0.337502178305895	0.334396071263357	0.329144659032803	0.331232748989264	0.327265343729028	0.324876309838005	0.3203870663338	0.317731078077002	0.315711084171443	0.31230437590626	0.316625792764189	0.316535245684383	0.318035068722647	0.318825116300009	0.319210798307391	0.316273337569782	0.310820078045448	0.305775632680202	0.30688960491989	0.307931898296137	0.30781811389254	0.307417071187825	0.306009942308644	0.306467760808538	0.305665743241049	0.307573952442003	0.303247800122229	0.304494530652261	0.301724071250847	0.301713221968938	0.303224017955108	0.303508324903332	0.302735942685451	0.300291022373474	0.296419042618954	0.292651191798251	0.291343197777958	0.292002532702562	0.291751320224024	0.289243110341273	0.287477744096294	0.288040455606794	0.286389088368744	0.28567149777274	0.287578668649824	0.282057220034196	0.278754278135102	0.281609910770002	0.28072598400505	0.277699888935842	0.27300010656302	0.268949842495915	0.269858701148984	0.264672279380306	0.260404781817313	0.263507193451188	0.262898902761639	0.266105464727567	0.260402686456815	0.259529889579201	0.25619917167296	0.252926885717921	0.246412005383516	0.246610004774808	0.247771870459385	0.248242802408945	0.245890966909216	0.246920123623447	0.247175094484876	0.253098205775273	0.251232309395845	0.255739596157164	0.253548062652039	0.252382446024312	0.249772330948309	0.244670938880866	0.246055305258095	0.243245208694265	0.244819328742611	0.250417084260858	0.249895461726011	0.244362476979594	0.244607515048423	0.243558732613996	0.241722507026947	0.242822847882949	0.242646056868425	0.239531720644775	0.240341090920733	0.240972338359168	0.239568287798581	0.239319767762062	0.237236702835068	0.2327996488931	0.231318542916603	0.229921755324138	0.232011273462853	0.227984333115796	0.227640284597449	0.224561915638412	0.218730033253281	0.220713923696579	0.219144414780035	0.217979419169819	0.217117010524213	0.217732659804821	0.213794335765766	0.214341516382981	0.215152100936352	0.214090249635069	0.211355005601964	0.212660540284755	0.210281297879081
0.319796333457108	0.315946938242628	0.318491585379275	0.31925988285062	0.320390792071567	0.315290521602049	0.31830408015123	0.311483190782738	0.310255641560427	0.309430634063778	0.307764788400271	0.311413828630558	0.311737846019296	0.307190394610258	0.310634842145122	0.311745449097062	0.30926160811304	0.30947617923505	0.309250555758866	0.308836943454757	0.304380098387278	0.301197496234471	0.303651032770227	0.303571579311861	0.298928599223431	0.297389483471261	0.297672202515314	0.299185439586113	0.303337209162685	0.307280023490073	0.306247016830779	0.307608926048016	0.304768606159182	0.299345539815838	0.29931021050129	0.299248372040104	0.299825746896467	0.297180743903675	0.293933583041236	0.296650143193316	0.292253118275116	0.29141668572791	0.29193545790129	0.287350422768281	0.283873677545503	0.28373995291629	0.285321082268799	0.28369325748085	0.282746799645643	0.281563641399703	0.287440617118342	0.285784287909618	0.285236765020274	0.282234870818885	0.280855722104514	0.281431186313533	0.282347046039745	0.281072271918521	0.27992985521814	0.279753329438539	0.278566150124781	0.278345197895658	0.274835935922263	0.271327112061051	0.27341596905637	0.270525737362029	0.26543076423152	0.270318995582834	0.269023374015016	0.268268591570566	0.272156266659825	0.2702820751845	0.2722255589558	0.270353377309138	0.267209412159949	0.264926852979355	0.2676712399917	0.263383428356317	0.261745489791725	0.265531573881528	0.264879736560381	0.264600709479583	0.261244766669781	0.267299105133442	0.264901956440667	0.263644647633194	0.263992545478723	0.269067571429601	0.269365946928839	0.26971095036982	0.264254565341327	0.258348729409161	0.256629173998472	0.258121661399118	0.255875673678905	0.25757201621693	0.257679297380726	0.259363548305358	0.258405604941352	0.25400408888525	0.257077371001632	0.258594706666521	0.258324665703783	0.259251700707266	0.256553312336514	0.25721207456486	0.258842614829865	0.26147945746518	0.257692710415844	0.25795895084871	0.256898954856972	0.255319100857873	0.251586843780569	0.249776402699093	0.249960407742158	0.251092769826324	0.250903309003442	0.251565604061864	0.24640519598959	0.246106529995839	0.247561382428873	0.24906691094098	0.248155386964714	0.248179021404874	0.250073487484234	0.251481148022088	0.246167673163587	0.246240275504017	0.24680285602214	0.243608561162952	0.242133601675417	0.245147160224598	0.239339092344089	0.236108823816165	0.235499261707952	0.234404405524023	0.235162819285251	0.237710497075017	0.233137018044568	0.235164219336523	0.237014943201674	0.231715852574838	0.229683571600793	0.228520496876421	0.226471435680689	0.219914511917533	0.21965659968797	0.220329613634574	0.218983770477255	0.215202333577124	0.212907577203331	0.213190296247383	0.213226431455644	0.215977419274724	0.21721758614438	0.214354885615093	0.217684677356877	0.214724634873877	0.209723040941468	0.207723135758274	0.208352389029927	0.20966102900399	0.205589312247926	0.202289228555284	0.201627837772605	0.199993139667016	0.199008170658035	0.200941982874346	0.199420095475782	0.19498354306382	0.19430542747379	0.197581851487145	0.198510484957566	0.197814103051716	0.194917184347482	0.199546757685464	0.198149818720583	0.19692476606054	0.1949717370868	0.193494224629307
0.231083955355298	0.225359522976873	0.222492942498941	0.219360672876175	0.220134263969881	0.223468246352374	0.22400040519116	0.222460265886083	0.222241323362209	0.220577526872378	0.220544321248664	0.221060227202155	0.221126782804732	0.225431962507058	0.223723318394437	0.223110646262999	0.217991633782497	0.222322440676784	0.220483291078975	0.21556506257962	0.213884760511909	0.211745453801986	0.212553332433422	0.212286659287906	0.213130033267068	0.210968950835849	0.207997606975443	0.208444319258635	0.209539687600264	0.208964347921384	0.210868516231934	0.212087509409374	0.21070679604257	0.209520648721268	0.209379305234146	0.208248480838049	0.20241086950707	0.20382743881127	0.195990318957213	0.19958094959669	0.203391818523683	0.202394286045446	0.204041210113503	0.20651650795697	0.203340715868844	0.201786699876979	0.199396893333721	0.197704167008599	0.198545676938714	0.194581366988681	0.191096248975963	0.191807242681478	0.190923320409582	0.187637689849416	0.188454618517152	0.187746967755257	0.1896522599153	0.188206678059567	0.187065786192171	0.190533696778141	0.194824554019514	0.196948778481814	0.195878269024248	0.197000243569142	0.199249475607616	0.201083100870931	0.201778255921697	0.200127420731126	0.198659704986442	0.198847323247112	0.199194956076353	0.200389829938993	0.200189057110703	0.19597368089433	0.198116008063914	0.194688276866362	0.191509903244648	0.192794080057574	0.192823875052736	0.195285592163811	0.192993645316984	0.19502249884533	0.196645061839217	0.196400340172981	0.195927753258828	0.191094647118038	0.191383701932875	0.190597067112207	0.190251911417453	0.191547663556166	0.190401079572406	0.188525483968815	0.185293492360072	0.183636558252264	0.180494741026264	0.180218358112165	0.180091791144795	0.180928140429952	0.182861029591038	0.183148652195566	0.184700415949606	0.185225397126072	0.18236090707188	0.179284876156204	0.180081527174903	0.177253365011449	0.175386459651036	0.179891544392824	0.180265050175098	0.180695494262602	0.181147294928301	0.181039168257371	0.184861528948978	0.184894077165414	0.182965195808026	0.183826738996326	0.18241520974881	0.181201958819386	0.179328884675618	0.176482492254878	0.177512332382772	0.175548744996692	0.171257887755319	0.167743882642094	0.166246437743785	0.165166219982764	0.159692810420962	0.158624893342926	0.155679945759509	0.155872248282832	0.155650496145821	0.155818340624263	0.153593353654327	0.152567554866697	0.150713184945338	0.152433934729435	0.152111371246184	0.151446661731061	0.151840773868558	0.14910385109774	0.14961853269516	0.144316934840437	0.146957777880047	0.144103597416771	0.14363267611241	0.142742414817834	0.141262166446737	0.142140838034937	0.141383840064401	0.141767116851286	0.142561894312671	0.141430018475792	0.142738273947284	0.14285135435459	0.144700054749389	0.146463766355897	0.148602696204399	0.150088743766548	0.148902596445247	0.148761252958125	0.147630428562027	0.143710396105501	0.144241990912893	0.138127957435435	0.137894217943245	0.141437050284933	0.13893313526599	0.138769861368408	0.139784014922615	0.13487679296538	0.132567136351892	0.130461476907473	0.127786462648029	0.1279840269482	0.12517669712206	0.121691579109343	0.122654993125908	0.123539745920776	0.12203682614728	0.121553018321516
0.174304708408923	0.174030057669319	0.169889937097517	0.171786193988533	0.171967504691221	0.171467528793526	0.174653690198425	0.176598021845827	0.177379431054338	0.17797225153744	0.179722361488265	0.175726169213377	0.177016762041989	0.176982684316321	0.179989745322405	0.178231830027804	0.173801320687731	0.174130390059211	0.17245003171536	0.172805663159519	0.173529797735156	0.17484000795104	0.175540145478471	0.177868089952288	0.175961954837547	0.174426486679442	0.174450768782996	0.175218269056389	0.173992975925508	0.174316228084119	0.173165341576493	0.171654393263985	0.171693116024147	0.173021668105431	0.173013593757841	0.171761984818987	0.172754200149957	0.173204852735688	0.17335476119027	0.172962562161077	0.172051930729398	0.172010911033083	0.171525618962157	0.169310799171671	0.170080824529219	0.170693550861077	0.170493532550172	0.167402731624508	0.168254206828904	0.168688688182331	0.167867718030927	0.166858626907638	0.16581682759605	0.164148126404209	0.161439164820914	0.160458356995879	0.162004427797773	0.157209231404934	0.158862317002296	0.159517137413717	0.15652524336521	0.155568983052299	0.15251033299042	0.153081511106084	0.154005452849061	0.153243398236186	0.151120538015137	0.152171515911538	0.15110685681661	0.149451885680938	0.146176675344226	0.144422987200617	0.14180921645099	0.142700668965543	0.142514129198162	0.140190075921726	0.138675018859968	0.136859283595399	0.136432345661493	0.139310845554256	0.138303913714931	0.139634533841013	0.138963322095579	0.13737285726178	0.13524659159337	0.134826771001225	0.132672311267907	0.133968279475536	0.134148113149021	0.131394401562104	0.134242156063928	0.132737354625811	0.131458774530805	0.133681201725927	0.131445544756094	0.131704527052799	0.131695301254823	0.130584084763913	0.129659353562321	0.128413378270432	0.126532676949857	0.129312335043498	0.127589248666899	0.127560917311053	0.12560532355735	0.126089901312113	0.127233637827106	0.126034831341949	0.127515579031536	0.126933406389736	0.126652884669291	0.125804769797374	0.125067275541111	0.125067275541111	0.124351819673614	0.124550222841622	0.125903047587453	0.127051887134467	0.126645620334483	0.127515993480901	0.126316509231542	0.123323928578384	0.125533702896781	0.126451622554888	0.126148397968288	0.127586490676469	0.127774980320837	0.124911775730395	0.126027203979067	0.125227248899288	0.12227199511677	0.124816779936472	0.125810510357111	0.12795902171772	0.12885116667303	0.128209790087833	0.12598227287971	0.127665064737514	0.127734546106322	0.130094729796741	0.128849366272613	0.124829505860483	0.126078511903024	0.12470865015896	0.124049250737652	0.125554213955634	0.126864424171518	0.127564561698949	0.129188226218468	0.127430994911414	0.126651167374933	0.128320493217513	0.127744627522383	0.126519334391503	0.125575022216518	0.124582739641964	0.123071791329456	0.122008324106969	0.12267412038355	0.121832294563412	0.121317168384434	0.120307985241319	0.120834228973106	0.120984137427688	0.120984137427688	0.121407192221846	0.121696086734363	0.119756356172957	0.117718231905911	0.118488257263459	0.118574153633236	0.11837413532233	0.116770004111482	0.116918540573257	0.11708726836478	0.116711722654535	0.115383359716248	0.114463423045186	0.112589308223629	0.109630270710978
0.118759943506236	0.117458396834126	0.114738924204021	0.113299983165966	0.11321580035717	0.11260964872728	0.111719387432704	0.114326639596087	0.115255148962695	0.117430098954834	0.119325138806046	0.123208357541968	0.120937105116906	0.121076557174054	0.119545564291114	0.120030498561416	0.11810584402251	0.117779108645488	0.117296860777017	0.116221948340395	0.113858610482858	0.114777568679822	0.114407665906525	0.114517098558756	0.111517106399682	0.112080546806509	0.110845800177193	0.109178664578011	0.107490110652138	0.106461569842678	0.105453169391661	0.106476213939097	0.107020604899914	0.10383097597624	0.106400442731014	0.105756118153097	0.103834237699522	0.106117173598564	0.106226533951684	0.105700087245341	0.106542923122516	0.106672414886537	0.106714483673308	0.107355860258504	0.106645643131533	0.104763339210198	0.101829411869583	0.10412224469005	0.102737322097606	0.105553279846471	0.105637916613641	0.105875598797465	0.106646660630918	0.106764539227515	0.109197961736504	0.108045815083824	0.103857847481593	0.105133110059262	0.103013846065791	0.100078157584967	0.0993468924672664	0.099492413554098	0.102206431674352	0.102843515353689	0.105095663252563	0.107815135882668	0.107922146946959	0.10664937840188	0.108019810126938	0.10630281925813	0.10393382160504	0.101015644687357	0.0998410035061935	0.0954133938094541	0.0966654606906264	0.0981558844733435	0.0972656231787676	0.0976874109018709	0.0992019430859818	0.0987484531164361	0.0999442151055054	0.100554087371973	0.101509268065557	0.101285977228043	0.100011759443271	0.10165588000134	0.102436708643685	0.0996574997688696	0.101691890489801	0.102114486675465	0.10157189712572	0.103843851598952	0.104397525194283	0.101354908621026	0.102865797050126	0.102532904313999	0.103485959219027	0.101330050449719	0.102118420880261	0.10071879997841	0.0985338012812892	0.097551932799849	0.0987020595369116	0.0969394786464926	0.0972273240685535	0.0972066345012891	0.0962866978302273	0.0965913400188541	0.0994196081019896	0.0968936886650381	0.0956180325865206	0.093031768525047	0.0905556452218557	0.0913423474219557	0.0890469865955004	0.0883037454478782	0.0866259635605129	0.085995111465485	0.0869325679908778	0.0886996418883363	0.0894309070060366	0.0908653233346475	0.0931161641506122	0.0925819531995135	0.0893959122492664	0.0894002051551265	0.0880986584830161	0.0853791858529114	0.0846715099325563	0.0845873271237598	0.0845932230382574	0.0837029617436815	0.084694518185535	0.0854280669470018	0.0860102086331414	0.0870983922205975	0.0894123918478652	0.0871411394228037	0.0879219680651481	0.0863909751822079	0.085925308225746	0.08400065368684	0.0827233170830546	0.0822410692145834	0.0805654919218981	0.0799539585472358	0.0807148990414219	0.0798516071256968	0.0790707784833525	0.0774678035310978	0.0774673129805776	0.0762890761732901	0.0738662999524842	0.0706591468892044	0.0697833205661695	0.0705912149650496	0.0693974787634312	0.0699418697242484	0.0667522408005741	0.0687210426992848	0.0690917489868341	0.067477168871942	0.0675015443758653	0.0683454758581316	0.0670121728880333	0.0668727208308854	0.0676039859485856	0.0676460547353565	0.068287431320553	0.067577214193582	0.0654117019151495	0.0648110370590862	0.0672962447669045	0.0669075549026374	0.0689466383468959	0.0691703831427832	0.0691703831427832	0.0698965248605841	0.0684096191212603	0.0708430416302492
0.102660522756275	0.100623883630908	0.098050166054172	0.0946998340914988	0.0950879473285361	0.0948199107432315	0.0925444454065043	0.0937408900057566	0.091626529187996	0.0898143847729329	0.0901520923496766	0.0878135420580731	0.0884983897229328	0.0863303342425965	0.0877708225290798	0.0874637861318325	0.0886890792627134	0.0881077906923296	0.0894223955941392	0.09056168596467	0.0890972735103386	0.0870913888357176	0.0867361122347575	0.0879679870016567	0.0886312479773201	0.0899200418459212	0.0897502692615017	0.0903090413741688	0.0897465040479909	0.0893461095273399	0.0901716768333957	0.089192060807455	0.087802890957237	0.0915724819319187	0.0922835010347228	0.0924947506955291	0.095653590223327	0.0931684676522214	0.0897030610555117	0.0883643429766116	0.0875980280774326	0.0875468124353004	0.0871028430067413	0.0866556775257051	0.0853995098370742	0.0851179416900854	0.0862977976653845	0.0864489670064602	0.0856152155339125	0.0857009163782788	0.084130001864495	0.0816704610000489	0.0802978192971523	0.0802557505103813	0.0810586710128825	0.0816113028916471	0.0820692317004675	0.0825626208428953	0.0817610490157192	0.0809481277436717	0.082148797271594	0.0831638281370608	0.0834415146853712	0.0832513396189894	0.0842697866210669	0.0886066207744699	0.0893831358919258	0.0901673238398294	0.0895666589837661	0.0891351748845986	0.0886867502297167	0.0909319920190538	0.0912414214445901	0.0918251402869895	0.0940970290936835	0.0940970290936835	0.0938423083532139	0.0925666522746964	0.0922612958148774	0.0922612958148774	0.0906942280109038	0.0890774642767333	0.0878865381883179	0.0889683082058271	0.089684329049813	0.0889562673456488	0.0893598444590176	0.0874783793317087	0.0878908868041354	0.0874489644456844	0.0876199601135291	0.0870422682713642	0.0857687317803633	0.0862608173770516	0.0857333052429776	0.0834792714684853	0.0820633825389527	0.0826132766001209	0.0799988280331402	0.0799988280331402	0.0817031219619015	0.0845057727539082	0.0843432655913627	0.0842724726345989	0.0835168320129753	0.084716442063158	0.083425678988248	0.0835339483362911	0.0810060379244484	0.0806669004355432	0.0806669004355432	0.0779273503719975	0.0782592197289384	0.0800250948478625	0.0821173317307542	0.0813941583579747	0.0800545576029633	0.0785738837611549	0.0789960322141098	0.078502643071682	0.077839887266979	0.0786414590941551	0.0781356380006389	0.0779014357775165	0.0752213941745856	0.0756528870596505	0.0743010955991431	0.0717273780224072	0.068377046059734	0.068876010867528	0.0696568395098723	0.0679432864578494	0.0688068383209745	0.0660511009180174	0.0643425155974303	0.064680223174174	0.062304775273004	0.062304775273004	0.0611190077269903	0.0625594960134736	0.0629152154209293	0.0641405085518101	0.0635592199814263	0.0651807463937025	0.0657756458034159	0.0643112333490846	0.0617791730982284	0.0614238964972684	0.0621459358169921	0.0628091967926555	0.0630909887356286	0.0621403875088647	0.0626991596215318	0.0627993781000569	0.0623989835794059	0.0631967591697101	0.0630786863320687	0.0616701401961713	0.0634709292721422	0.0629462232316948	0.0624018322708775	0.0648758241338157	0.0631715302050544	0.0603688794130477	0.0599500980052094	0.0598465389107334	0.060602179532357	0.0594025694821743	0.0589554040011381	0.0593892001671849	0.0588623702051037	0.0589244593959539	0.0598750606227177	0.0598750606227177	0.0604122034314969	0.0578906876909492	0.0565540914296811	0.0558228263119808	0.0549890748394331	0.0556739225042929
0.0734327898168295	0.0735161948476496	0.0742246317098545	0.0735397840449948	0.0734362249505188	0.0744115569766018	0.0738968926357061	0.0731946823011794	0.0725319264964765	0.0728629354774365	0.0733583322169956	0.0733176204878624	0.0768091617635412	0.077249169159542	0.0786636722162372	0.0789079911538152	0.0775689746018761	0.078839187848409	0.0777565124285472	0.0776134915775768	0.0769509172633047	0.0760855751274961	0.0765643773430324	0.0766703042566052	0.0778742181679795	0.076688117195469	0.0765909860842692	0.0751783138604346	0.0740913811284473	0.0745308835197443	0.0736530156354534	0.0748102401906667	0.0750772657107904	0.0744565786928584	0.0744565786928584	0.072549283474637	0.0728880413834001	0.0734558055711288	0.0751529231294605	0.0745589048734886	0.0768097476026935	0.0772285290105318	0.0756998065089437	0.0759732462814563	0.0745204476607025	0.0735973878943036	0.0719926035583821	0.071139028102	0.0703172663222097	0.0729214249761974	0.0725355831734591	0.0725355831734591	0.0722168255281855	0.0702488722821897	0.0664758922477607	0.0658131364430577	0.0651717598578613	0.0657530484282451	0.0650481786015166	0.0643854227968136	0.0651922790605694	0.0644769245313573	0.0618015768057494	0.0620218158144121	0.0606317306532636	0.0613394065736187	0.0608015890828982	0.0586761303197527	0.0593546853914905	0.0587133088062941	0.0600568957260172	0.0574544691867058	0.0577470794556289	0.0579221492290797	0.0550719845385974	0.0534035850865423	0.0523999476228102	0.0520551623561252	0.052617699682303	0.0518249597994099	0.0499073809249583	0.051420729479948	0.0512157618798439	0.0507962616586341	0.0519340888584754	0.0512492411936157	0.0509959285090052	0.0509959285090052	0.0505883757416265	0.0512732234064862	0.0514197593950773	0.0501341161820501	0.0507949745627172	0.0500654254459765	0.0500210868817981	0.050911348176374	0.051532035194306	0.0510386460518782	0.0498504827018434	0.0490115043677449	0.0481481382819608	0.0475474734258976	0.0459814783615525	0.0455626969537142	0.0444845587340111	0.0460867145650894	0.0460867145650894	0.0460285648733353	0.0469309350724698	0.0472883344173537	0.0482572817188774	0.0469220503257162	0.0460605071374169	0.0473078921284545	0.0468458211313838	0.0470059627557961	0.0488137743773796	0.0511152045468489	0.0511152045468489	0.0505339159764652	0.0499332511204019	0.0512387858031937	0.0504319295394379	0.0492770881380466	0.0500579167803909	0.0511129287555848	0.050306072491829	0.0511104903315185	0.0504256426666587	0.0503655546518461	0.0511583013037082	0.0515635736338743	0.0508613632993476	0.0508613632993476	0.0511923722803077	0.0511433780590495	0.0518103422502714	0.0545210548836058	0.055316517745627	0.0567310208023222	0.0569753397399002	0.0564978663762604	0.0577680796227933	0.0563328419187277	0.0561898210677574	0.0548423990886255	0.0537439703363324	0.0534915074341685	0.0540595053448121	0.0552634192561864	0.054482590613842	0.0537977429489823	0.0523850707251477	0.0531737335967514	0.0526309480537257	0.0510903243647319	0.0515398729995901	0.0518068985197138	0.0511862115017818	0.0511862115017818	0.0495411677627562	0.050089130739817	0.0498760662852013	0.0506829225489571	0.0499980748840974	0.0499980748840974	0.0499980748840974	0.0485999526441462	0.0488733924166589	0.048310855090481	0.0474084848913465	0.0464885482202847	0.0456349727639026	0.0448132109841123	0.0466365409957557	0.0462506991930174	0.0462506991930174	0.0459319415477438	0.0441241299261603	0.041822699756691
0.0583689307777979	0.0570029523446924	0.058057178752685	0.0562457410683906	0.0561587521659676	0.0542842615955078	0.0563267770311554	0.0560621578964657	0.0569949641824582	0.0558404281971527	0.0552867837206032	0.0563706111225072	0.0554136101942955	0.0546296382168257	0.0535960626024363	0.0517415928044073	0.0517415928044073	0.0506422416366892	0.0525121189572058	0.052923292985687	0.0512140639015223	0.0512140639015223	0.0519932426082334	0.0515962403654345	0.0506905592543228	0.0508356978485	0.0508356978485	0.0504169164406617	0.0482695385404015	0.0488492913326861	0.0488492913326861	0.048141615412331	0.0469734088650534	0.0468663978007615	0.0482187300924082	0.0494807936955367	0.0509993928329441	0.0517306579506443	0.0517306579506443	0.0490121361258938	0.0483707595406974	0.0501331368034966	0.0502956439660421	0.0508400349268593	0.0498261058690013	0.0514645028651659	0.0519419762288057	0.0525208992610563	0.0523729834331498	0.0510458428181744	0.0510458428181744	0.0519648718094486	0.0510142705826848	0.050329422917825	0.050989082561964	0.0504210974230344	0.0504210974230344	0.0494094336026842	0.0487887465847522	0.0479756846794689	0.0478324710251767	0.0472318061691134	0.046106192260084	0.0448228964328778	0.0463303398848707	0.0447426549787705	0.0462355780303101	0.0469432539506651	0.045542115100214	0.045542115100214	0.0439233267221473	0.0441890802840514	0.0449329673414141	0.0442963054205464	0.0442963054205464	0.0442617499069045	0.0449694258272596	0.046003001441649	0.0470506149759222	0.0459420533690951	0.0449966460004887	0.0445405518563554	0.0444925871550869	0.0463160802756787	0.0455369015689677	0.0445863003422038	0.0445413802265517	0.0454470613376635	0.0454470613376635	0.0454470613376635	0.0454470613376635	0.0462338578032947	0.0470146864456391	0.0470146864456391	0.0470146864456391	0.0475822281368535	0.0469375717655619	0.0456755081624334	0.044156909025026	0.0434256439073258	0.0434256439073258	0.0434256439073258	0.045617335769995	0.0426691909611821	0.0426322933516156	0.0425066837986367	0.0416691209829601	0.0403358250071711	0.0407198948318306	0.0388354371167882	0.0386003481105861	0.0386003481105861	0.0405481757434937	0.0396291467522194	0.0396291467522194	0.0405797479789832	0.0398241073573597	0.0392615700311818	0.0403920924962892	0.0397714054783572	0.039284209595395	0.0401834566991924	0.0411604218260323	0.0411604218260323	0.0412990156850248	0.0399170080168922	0.0397560225175558	0.0402658579647312	0.0389591041590154	0.0388721152565924	0.038230738671396	0.0396725892509803	0.0394079701162907	0.0403407764022832	0.0385013927521179	0.0384869680591813	0.0395707954610852	0.0390609600139098	0.038897675054372	0.0378640994399826	0.0368164859057095	0.0368164859057095	0.0355309654921676	0.0374008428126842	0.0373345434775255	0.0362666909785573	0.0362666909785573	0.0370458696852683	0.0363831138805654	0.0354774327694536	0.0354774327694536	0.0354774327694536	0.0354774327694536	0.0333300548691934	0.0330760561889303	0.0330760561889303	0.0330760561889303	0.0319078496416527	0.0312001737212976	0.0325525060129443	0.0331938825981407	0.0331938825981407	0.033925147715841	0.033925147715841	0.0317334558531717	0.0317334558531717	0.0341372097011673	0.033718428293329	0.0342628192541463	0.0335149564533096	0.0351533534494742	0.035630826813114	0.0368304368632967	0.0371296865164264	0.0351818588835189	0.0351818588835189	0.0361008878747932	0.0351502866480293	0.0344654389831696	0.0351502866480293
0.0403921463560801	0.0398436712828066	0.0412125064440661	0.0416733453589471	0.0424360003558785	0.0427821909411822	0.0429772042879166	0.0415043835052941	0.0428519869748568	0.0417172212472325	0.0410965342293005	0.0418042101496556	0.0418042101496556	0.04004381523533	0.0422324085262548	0.0434190025643136	0.0434764805144401	0.0434357687853069	0.0430471391721556	0.0430471391721556	0.0433589013599959	0.0420112978904332	0.0420112978904332	0.042573835216611	0.0430210006976473	0.0419569636982061	0.0413493105193511	0.0409537921378083	0.040409401176991	0.0402074955668973	0.0400854776692778	0.0403636449272616	0.0403636449272616	0.0403636449272616	0.0394302954294155	0.0408999074978743	0.0408999074978743	0.0414908981068833	0.0414201051501195	0.0414436943474646	0.0422814623698519	0.0416882438098534	0.0403882122274126	0.0398256749012347	0.0393158394540593	0.0397274909150181	0.0389962257973178	0.0411849096005926	0.0412109372220041	0.0407011017748287	0.0407011017748287	0.0406458758135244	0.0412271643839081	0.0396558761392123	0.0410263078642703	0.0405488345006305	0.0389745256343549	0.038259230414659	0.0392986988404293	0.0390378205081932	0.0393142950808597	0.0393142950808597	0.0395767603837983	0.0390530589902454	0.0384216343970564	0.03810318649358	0.0367198444787166	0.0359465105742454	0.0355572861233509	0.035597997852484	0.0354336187270312	0.0354336187270312	0.0360749953122276	0.0359880064098046	0.0359880064098046	0.0353031587449449	0.0343202109813499	0.032885794652739	0.0318100027579212	0.0318941855667177	0.0315019865375247	0.032282815179869	0.0319710529920287	0.0319710529920287	0.0326338087967317	0.0320712714705538	0.0316241059895176	0.0312445585419115	0.0320467664037624	0.0319358618038003	0.0331979254069288	0.0333235349599077	0.0329680794938874	0.0322124388722639	0.0326899122359037	0.0326899122359037	0.0326899122359037	0.0321536496652909	0.0321536496652909	0.0309419720383499	0.0308778113914222	0.0309021868953455	0.0302622593461379	0.0303393540052137	0.0313653133533118	0.0326653449357527	0.0326653449357527	0.0324195397613045	0.0324195397613045	0.03096212107573	0.0301552648119741	0.0309360934543185	0.0314459289014939	0.0300237236739531	0.0303930363303332	0.0303930363303332	0.029973205832039	0.029973205832039	0.0300711317480727	0.0320249880619544	0.03170081485588	0.0311001499998168	0.0302230105710871	0.0308236754271503	0.0300168191633945	0.029375442578198	0.0276618895261752	0.0290307246874347	0.0303253150748634	0.0310879700717948	0.0313720697084588	0.0315670830551932	0.0309845235671465	0.0316472793718495	0.0310059027866531	0.0303852157687211	0.0310928916890761	0.0310928916890761	0.0294545053736467	0.0307503278432651	0.0319369218813239	0.0312520742164641	0.0312520742164641	0.0308634446033128	0.0308634446033128	0.0308634446033128	0.0302006887986098	0.0302006887986098	0.0302006887986098	0.0306478542796461	0.0295838172802049	0.0288281766585813	0.0284326582770385	0.0278882673162212	0.0278882673162212	0.0282437227822415	0.0285218900402252	0.0285218900402252	0.0285218900402252	0.0275885405423792	0.0282512963470822	0.0282512963470822	0.0288422869560911	0.0287714939993273	0.0287950831966725	0.0296328512190598	0.0290396326590612	0.0277396010766204	0.0277396010766204	0.027229765629445	0.027229765629445	0.0264985005117448	0.0278534328424719	0.0278794604638833	0.027369625016708	0.027369625016708	0.0271998524322885	0.0277811410026722	0.0268305397759084	0.0274932955806114
0.031971269593596	0.0328328127818952	0.0344307499968262	0.0350895700402745	0.0356339610010918	0.0350332961450285	0.0356539831629605	0.0355743186819155	0.0344437962168081	0.0336369399530523	0.0336369399530523	0.0334995241156331	0.0330523586345969	0.0330523586345969	0.0330523586345969	0.0330523586345969	0.0336579758843885	0.0339037810588367	0.0326563960677991	0.0334168348787145	0.0334168348787145	0.0350680366674765	0.0350680366674765	0.0350249493118843	0.0358318055756401	0.0352692682494623	0.0352692682494623	0.0350839858083991	0.0338768390428789	0.035629005542934	0.035629005542934	0.0354885488388916	0.0354885488388916	0.0350264778418208	0.0339153817541769	0.0337794559115552	0.0344001429294872	0.0342740673772946	0.0355516046289059	0.0366621049321445	0.035280097264012	0.035280097264012	0.0358069272260932	0.0350512866044696	0.0344506217484064	0.0366146027945549	0.0351461990780135	0.0346528099355857	0.0352734969535177	0.0336978670113986	0.0331606245630582	0.0336874545251394	0.0328386099166913	0.0325339931421099	0.0330180380201805	0.032722381035696	0.0339056053798058	0.0344324353418871	0.0350599475736624	0.0344974102474846	0.0351822579123443	0.036163373605212	0.0368261294099149	0.0359645862216157	0.0343666490066847	0.0329009726994806	0.0331634380024192	0.0331634380024192	0.0318579033196274	0.0320955855034509	0.0326224154655321	0.0337529379306395	0.0341126287133591	0.0338521182740403	0.0346972100318146	0.0351443755128508	0.0351443755128508	0.0351443755128508	0.0337749819229171	0.0337831176414356	0.0337831176414356	0.0329762613776797	0.03370752649538	0.032056324706618	0.032056324706618	0.0310791929577011	0.0312925557984543	0.0312925557984543	0.0318550931246322	0.0313776197609924	0.0320403755656953	0.0308326000264574	0.0308326000264574	0.0302882090656402	0.0309730567304999	0.0309730567304999	0.0314351277275707	0.030266921180293	0.0309503665522604	0.0302426906319053	0.0294549156921769	0.028688404549603	0.028688404549603	0.0296083412206648	0.0290815112585836	0.0290815112585836	0.0298371518802072	0.0282738356901219	0.0282738356901219	0.0290345634863083	0.0289072656108041	0.0283066007547408	0.0291777767959195	0.0286509468338382	0.0286509468338382	0.028382202989327	0.0272921497054152	0.0274961751289983	0.0276519673368275	0.0271251373747462	0.0260504596619346	0.0264976251429709	0.0258127774781112	0.0248316617852435	0.0241689059805405	0.0241689059805405	0.0250304491688398	0.0257381250891948	0.0257120974677834	0.0262564884286006	0.0262564884286006	0.0268771754465327	0.0263503454844514	0.025219823019344	0.0244129667555882	0.0244129667555882	0.024275550918169	0.0238283854371328	0.0238283854371328	0.0238283854371328	0.0238283854371328	0.0244340026869244	0.0244340026869244	0.0237491550220647	0.0237027375692242	0.0237027375692242	0.0244340026869244	0.0244340026869244	0.0239581745432327	0.0247650308069885	0.0242024934808106	0.0242024934808106	0.0235397376761077	0.0229953467152904	0.0247475132153456	0.0247475132153456	0.0246070565113031	0.0246070565113031	0.0241449855142323	0.0241449855142323	0.0233676830864142	0.0233676830864142	0.0232416075342216	0.0245191447858329	0.0250289802330083	0.0241090435619465	0.0241090435619465	0.0246358735240277	0.0238802329024042	0.0232795680463409	0.0239423238510439	0.0231815960548575	0.0226882069124297	0.0233088939303617	0.0220887194542629	0.0226331104150802	0.0226331104150802	0.0217842658066321	0.0218277368862954	0.022311781764366
0.0291590594345999	0.0291590594345999	0.0279964822938323	0.0271062209992564	0.0262961826800783	0.0260483603895261	0.0263552818999926	0.0263552818999926	0.0263552818999926	0.0263552818999926	0.0269365704703763	0.0264097405082951	0.0266253308319618	0.0261632598348911	0.0267445484052748	0.0261132077736908	0.0253819426559906	0.0252176466065524	0.0246908166444711	0.0246908166444711	0.0246908166444711	0.0243235126629168	0.0250083603277765	0.0245149711853487	0.0237522006168456	0.0229965599952221	0.0224697300331408	0.0232765862968966	0.023786421744072	0.023786421744072	0.023786421744072	0.0231943362506359	0.0228270322690816	0.0236112575269207	0.0232672683662559	0.0232672683662559	0.0226045125615529	0.0226045125615529	0.0224861477176672	0.0242492642943342	0.024743395485206	0.0246270176675567	0.0246270176675567	0.0252477046854887	0.0239310129745575	0.0239310129745575	0.0220241603205621	0.0220241603205621	0.0212685196989385	0.0204876910565942	0.0193736148962344	0.0188467849341531	0.0188467849341531	0.0188467849341531	0.019409322260331	0.019409322260331	0.0183833629122329	0.016871916372995	0.0169864629961102	0.0148127077386432	0.015290181102283	0.0151686234703678	0.0153703645931455	0.0153703645931455	0.0153703645931455	0.0159516531635293	0.0155721057159231	0.0167616914827073	0.0161757623007119	0.0161757623007119	0.0161757623007119	0.0161757623007119	0.0155944737303281	0.0155944737303281	0.0154585478877064	0.0159057133687426	0.0157864957954296	0.0150788198750745	0.0150788198750745	0.0150544443711512	0.0150544443711512	0.0155812743332324	0.0155812743332324	0.0155812743332324	0.0148964266683727	0.0148964266683727	0.0153898158108005	0.0161525863793036	0.0161525863793036	0.015872560077629	0.0153627246304536	0.0153627246304536	0.0153627246304536	0.014672339540185	0.014672339540185	0.0142554182639002	0.0142554182639002	0.0142554182639002	0.0142554182639002	0.0149181740686032	0.0143737831077859	0.0132734223358219	0.0124675289571097	0.012071615224595	0.0128956689625994	0.0122749819446674	0.0122749819446674	0.0127848173918428	0.0127848173918428	0.0140502934606417	0.0140502934606417	0.0140502934606417	0.0140502934606417	0.0151643696210015	0.0156911995830828	0.0156911995830828	0.0151286622569049	0.0151286622569049	0.0151286622569049	0.0158720671734067	0.0152306905882102	0.0157575205502915	0.0174538024441187	0.0170485301139526	0.01699407150565	0.0173736189532562	0.0173736189532562	0.0167923303828724	0.0167923303828724	0.0159822920636943	0.0157344697731421	0.0165682212456898	0.0165682212456898	0.0165682212456898	0.0165682212456898	0.0171495098160736	0.0166226798539923	0.0161755143729561	0.0157134433758853	0.0162947319462691	0.0170024078666242	0.0162711427489239	0.0170267833705475	0.0164999534084663	0.0164999534084663	0.0164999534084663	0.0164999534084663	0.0164999534084663	0.0160065642660385	0.0152437936975353	0.0152437936975353	0.0147169637354541	0.0155238199992099	0.0160336554463853	0.0160336554463853	0.0160336554463853	0.0160336554463853	0.015666351464831	0.0159885057255993	0.0159885057255993	0.0159885057255993	0.0153257499208963	0.0153257499208963	0.0152073850770106	0.015988213719355	0.0164823449102268	0.0156582911722224	0.0156582911722224	0.0162789781901544	0.015769142742979	0.015769142742979	0.0145036666741801	0.0145036666741801	0.0145036666741801	0.0145036666741801	0.0133895905138203	0.012862760551739	0.012862760551739	0.012862760551739	0.0134252978779169
0.0253203387272911	0.0269325778185551	0.0267714021687865	0.0262615667216111	0.0262615667216111	0.0263223565239436	0.0260660833373724	0.0265281543344431	0.0258204784140881	0.0258374729289939	0.0252930819681767	0.0243563379317726	0.0249770249497046	0.0249770249497046	0.0249770249497046	0.0249770249497046	0.0249770249497046	0.0249770249497046	0.0257838812134604	0.026562137273916	0.026169938244723	0.026790625262655	0.025712487042952	0.0239944436403961	0.0237565676651237	0.0239434418220067	0.0231365855582508	0.022879102083714	0.0226351276868493	0.0219575179600607	0.0219575179600607	0.0213368309421287	0.0213368309421287	0.0210586636841449	0.0206109191856092	0.0221521421976433	0.0221521421976433	0.0214893863929403	0.0208178455561351	0.0208178455561351	0.0199325394035134	0.0199539186230199	0.0199539186230199	0.0193913812968421	0.0199357722576594	0.0197966642289419	0.0194044651997489	0.0194044651997489	0.0194044651997489	0.0194044651997489	0.0175373080830384	0.018482919452958	0.0182922782131119	0.0187250190012115	0.0194562841189117	0.0194562841189117	0.0194562841189117	0.0192883600509481	0.0205324044260348	0.0210949417522127	0.0216217717142939	0.0216217717142939	0.0208905065965937	0.0192782675053297	0.0183852167471056	0.0194394431550983	0.0199492786022737	0.0191076601575968	0.0192257329952381	0.0187636619981674	0.0187636619981674	0.0189445079564412	0.0194543434036166	0.0199987343644339	0.0203147913829059	0.0203147913829059	0.0203147913829059	0.0203147913829059	0.0203147913829059	0.0203147913829059	0.0195079351191501	0.0178394177641186	0.0187296790586945	0.0185011910699555	0.0185011910699555	0.0195793292896586	0.0203105944073588	0.0195793292896586	0.0201237202504758	0.0197184479203097	0.0199624223171744	0.0199624223171744	0.0203178777831947	0.0203178777831947	0.0209385648011267	0.0204610914374869	0.0205539762544075	0.0201232535456121	0.0201232535456121	0.0201232535456121	0.0202047207799313	0.0205376135160586	0.0205376135160586	0.0207601638639773	0.0214015404491737	0.0214015404491737	0.0208571494883564	0.0200763208460121	0.0209962575170738	0.0213884565462668	0.0213884565462668	0.0213884565462668	0.0213884565462668	0.0223100022930578	0.0223100022930578	0.0220679027448042	0.021336637627104	0.021336637627104	0.021336637627104	0.0209038968390044	0.0196598524639177	0.0190973151377398	0.0185704851756586	0.0185704851756586	0.0185704851756586	0.0193017502933588	0.0199431268785552	0.0197819512287866	0.0192721157816112	0.0192721157816112	0.0189533581363377	0.0196161139410406	0.0200781849381114	0.0193705090177564	0.0193875035326622	0.0188431125718449	0.0179063685354408	0.0185270555533729	0.0185270555533729	0.0185270555533729	0.0185270555533729	0.0185270555533729	0.0185270555533729	0.0193339118171287	0.0194914808596522	0.0190992818304592	0.0197199688483913	0.0186418306286882	0.0174171763685602	0.017910565510988	0.0180974396678709	0.0180974396678709	0.0178399561933341	0.0182587376011724	0.0179032821351521	0.0179032821351521	0.01728259511722	0.01728259511722	0.0165269544955965	0.0154164541923578	0.0166022217383715	0.0166022217383715	0.0159394659336686	0.0156065731975413	0.0156065731975413	0.0147212670449197	0.0140798904597233	0.0140798904597233	0.0140798904597233	0.0140798904597233	0.0131599537886615	0.0127677547594685	0.0127677547594685	0.0127677547594685	0.0127677547594685	0.010900597642758	0.010900597642758	0.0107099564029119	0.0111426971910115	0.0118739623087118
0.0214192715690134	0.0214192715690134	0.0209258824265856	0.0201450537842412	0.019697888303205	0.019697888303205	0.0192204149395652	0.0187105794923898	0.0179156157591918	0.0175934614984235	0.0180555324954943	0.0174929951693164	0.0170634353946874	0.0175568245371152	0.0175568245371152	0.0167043867259129	0.0167043867259129	0.0167043867259129	0.0172230161857235	0.0168758054349739	0.0152422323699169	0.0152422323699169	0.0142027639441465	0.0135400081394436	0.0136516583121613	0.0141960492729785	0.0139178820149948	0.0147334254181909	0.0143146440103526	0.0150385441450136	0.0150385441450136	0.0142118312163713	0.0137497602193005	0.0130870044145975	0.0130870044145975	0.0126095310509577	0.0126095310509577	0.0126095310509577	0.0116272317961258	0.0113446773645294	0.0113446773645294	0.0113446773645294	0.00973009724963741	0.00973009724963741	0.00973009724963741	0.00973009724963741	0.00967909543124793	0.0105128469037956	0.0100030114566202	0.0100030114566202	0.0100030114566202	0.00907688152609285	0.00781346086532664	0.00781346086532664	0.00781346086532664	0.00781346086532664	0.00820565989451964	0.00820565989451964	0.00820565989451964	0.00861093222468575	0.00861093222468575	0.00861093222468575	0.00910432136711354	0.00910432136711354	0.00910432136711354	0.00959771050954134	0.0103785391518857	0.0108257046329219	0.0108257046329219	0.0113031779965617	0.0113031779965617	0.011636070732689	0.0114961539963865	0.0114961539963865	0.0117569859794931	0.0119948619547655	0.0119948619547655	0.0119948619547655	0.0124001342849316	0.0124001342849316	0.0115486120889937	0.0114218593121148	0.0114218593121148	0.0120425463300468	0.0120425463300468	0.0130820147558171	0.0132003795997028	0.0130887294269851	0.0126112560633453	0.0117957126601492	0.0117957126601492	0.0111110464857203	0.0111110464857203	0.0111110464857203	0.0119377594143627	0.0123998304114335	0.0130625862161364	0.0130625862161364	0.0135400595797762	0.0135400595797762	0.0131073187916767	0.0136886073620604	0.0139711617936568	0.0139711617936568	0.0139711617936568	0.0139711617936568	0.0139711617936568	0.0139711617936568	0.013477772651229	0.0131884121394986	0.0131884121394986	0.013698247586674	0.013698247586674	0.013698247586674	0.0146243775172014	0.0152250423732646	0.0152250423732646	0.0152250423732646	0.0148328433440716	0.0148328433440716	0.0148328433440716	0.0144275710139055	0.0144275710139055	0.0144275710139055	0.0139341818714777	0.0139341818714777	0.0139341818714777	0.0134407927290499	0.0126599640867056	0.0122127986056693	0.0122127986056693	0.0117353252420295	0.0117353252420295	0.0114024325059023	0.011080278245134	0.011080278245134	0.0105177409189561	0.0100881811443272	0.010581570286755	0.010581570286755	0.0101762979565889	0.0101762979565889	0.0101762979565889	0.00984340522046162	0.0103030507334678	0.0096823637155358	0.0096823637155358	0.00864289528976548	0.00798013948506251	0.00754739869696293	0.00809178965778021	0.00856926302142001	0.00938480642461611	0.0089660250167778	0.0089660250167778	0.0089660250167778	0.00813931208813543	0.00767724109106465	0.00701448528636169	0.00701448528636169	0.00653701192272188	0.00653701192272188	0.00653701192272188	0.00638846414043768	0.0061059097088413	0.0061059097088413	0.0061059097088413	0.0061059097088413	0.0061059097088413	0.0061059097088413	0.0061059097088413	0.00605490789045182	0.00688865936299951	0.00637882391582412	0.00637882391582412	0.00637882391582412	0.00545269398529674	0.0048520291292335	0.0048520291292335	0.0048520291292335
0.0105933026855751	0.0105933026855751	0.0100626359814418	0.00948134741105804	0.00869148566220806	0.00869148566220806	0.00869148566220806	0.00869148566220806	0.00905878964376238	0.00905878964376238	0.00905878964376238	0.00905878964376238	0.00978808133510365	0.00988600725113732	0.00945326646303774	0.00945326646303774	0.010053931319101	0.010053931319101	0.010053931319101	0.0112221378663786	0.0117846751925565	0.0117846751925565	0.0113658937847182	0.0113658937847182	0.0110833393531218	0.0110833393531218	0.0110833393531218	0.0110833393531218	0.0112626449412474	0.0112626449412474	0.0117560340836752	0.0117560340836752	0.0117560340836752	0.0113507617535091	0.0113507617535091	0.0113507617535091	0.0113507617535091	0.0113507617535091	0.0113507617535091	0.0122479952798374	0.0122479952798374	0.0122479952798374	0.0117211653177562	0.0117211653177562	0.0117211653177562	0.0117211653177562	0.0100417163658006	0.00967441238424628	0.00906277330136752	0.00906277330136752	0.00946804563153362	0.00946804563153362	0.0100493342019174	0.00989641384438984	0.00858807306797154	0.00858807306797154	0.00858807306797154	0.00894352853399185	0.00894352853399185	0.00894352853399185	0.00894352853399185	0.00894352853399185	0.00894352853399185	0.00894352853399185	0.00856398108638572	0.00947419523812511	0.00952865384642765	0.0108453455573589	0.0108453455573589	0.0108453455573589	0.0104780415758045	0.0104780415758045	0.0104780415758045	0.0104780415758045	0.00974874988446327	0.00927127652082347	0.0096508239684296	0.0100835647565292	0.00948289990046594	0.00948289990046594	0.00948289990046594	0.00831469335318829	0.00775215602701043	0.00775215602701043	0.00775215602701043	0.00775215602701043	0.00775215602701043	0.00803471045860681	0.00803471045860681	0.00803471045860681	0.0073933338734104	0.0073933338734104	0.0068999447309826	0.0068999447309826	0.0068999447309826	0.0068999447309826	0.0073052170611487	0.0073052170611487	0.0073052170611487	0.0073052170611487	0.0073052170611487	0.00616016124426818	0.0064079835348204	0.0064079835348204	0.0064079835348204	0.00693481349690163	0.00693481349690163	0.00693481349690163	0.00693481349690163	0.00861426244885724	0.00898156643041156	0.00959320551329032	0.00918793318312421	0.00918793318312421	0.00860664461274043	0.00809680916556504	0.00809680916556504	0.00940514994198333	0.00940514994198333	0.00904969447596302	0.00904969447596302	0.00904969447596302	0.00904969447596302	0.00904969447596302	0.00904969447596302	0.00904969447596302	0.00904969447596302	0.00851902777182977	0.00793773920144598	0.00662104749051477	0.00662104749051477	0.00662104749051477	0.00662104749051477	0.00662104749051477	0.00662104749051477	0.00662104749051477	0.00662104749051477	0.00735033918185604	0.00744826509788971	0.00701552430979013	0.00701552430979013	0.00761618916585337	0.00761618916585337	0.00761618916585337	0.00878439571313103	0.00878439571313103	0.00878439571313103	0.00878439571313103	0.00878439571313103	0.00850184128153464	0.00850184128153464	0.00850184128153464	0.00850184128153464	0.00850184128153464	0.00850184128153464	0.00899523042396244	0.00899523042396244	0.00899523042396244	0.00858995809379634	0.00858995809379634	0.00858995809379634	0.00858995809379634	0.00858995809379634	0.00858995809379634	0.00948719162012465	0.00948719162012465	0.00948719162012465	0.00896036165804341	0.00896036165804341	0.00896036165804341	0.00896036165804341	0.0072809127060878	0.00691360872453348	0.00630196964165472	0.00630196964165472	0.00670724197182083	0.00670724197182083	0.00728853054220461	0.00728853054220461	0.00598018976578632
0.0107178421165077	0.0100101661961527	0.0094476288699748	0.0094476288699748	0.00812048825499932	0.00812048825499932	0.00812048825499932	0.00812048825499932	0.00812048825499932	0.00864731821708055	0.00864731821708055	0.00864731821708055	0.00864731821708055	0.00864731821708055	0.00864731821708055	0.00940682122782788	0.00971858341566817	0.00971858341566817	0.00932638438647517	0.00932638438647517	0.00948247916063786	0.0102137442783381	0.00972035513591028	0.00972035513591028	0.0101391365437486	0.0101391365437486	0.0101391365437486	0.00980624380762135	0.00980624380762135	0.00980624380762135	0.00931285466519355	0.00931285466519355	0.00926015278619109	0.00926015278619109	0.0093208011405193	0.0093208011405193	0.0097982745041591	0.00941872705655297	0.00941872705655297	0.00892533791412517	0.00892533791412517	0.00935807870222476	0.0086504027818697	0.00863448700308171	0.00863448700308171	0.00863448700308171	0.00863448700308171	0.00863448700308171	0.00780954718578912	0.00780954718578912	0.00780954718578912	0.00751757427313952	0.00751757427313952	0.0071502702915852	0.0071502702915852	0.0071502702915852	0.00796081495191741	0.00796081495191741	0.00867156927240531	0.00833867653627807	0.0087182239838842	0.0087182239838842	0.0082994425760459	0.0082994425760459	0.00900711849640095	0.00956965582257881	0.00956965582257881	0.0108967964375543	0.0108967964375543	0.0108967964375543	0.0108967964375543	0.0103699664754731	0.0103699664754731	0.0103699664754731	0.0103699664754731	0.0103699664754731	0.0103699664754731	0.00961046346472573	0.00929870127688544	0.00929870127688544	0.00929870127688544	0.00969090030607844	0.00889342894671934	0.00816216382901911	0.00816216382901911	0.00865555297144691	0.0082367715636086	0.0082367715636086	0.0082367715636086	0.0082367715636086	0.00856966429973584	0.00856966429973584	0.00856966429973584	0.00856966429973584	0.00805982885256045	0.00862236617873831	0.00812897703631051	0.00856171782441009	0.00808424446077029	0.00808424446077029	0.00846379190837642	0.00846379190837642	0.00846379190837642	0.00803105112027684	0.00803105112027684	0.00826125367699209	0.00875464281941989	0.00829257182234911	0.00875464281941989	0.00875464281941989	0.00875464281941989	0.00957958263671248	0.00957958263671248	0.00957958263671248	0.00987155554936207	0.00987155554936207	0.0102388595309164	0.0102388595309164	0.00942831487058418	0.00942831487058418	0.00871756055009628	0.00871756055009628	0.00867090583861739	0.00867090583861739	0.00867090583861739	0.0090896872464557	0.00838201132610064	0.00781947399992279	0.00781947399992279	0.0064923333849473	0.0064923333849473	0.0064923333849473	0.0064923333849473	0.0064923333849473	0.0064923333849473	0.0064923333849473	0.0064923333849473	0.0064923333849473	0.0064923333849473	0.0064923333849473	0.00688453241414031	0.00688453241414031	0.00688453241414031	0.0064923333849473	0.0064923333849473	0.00728980474430641	0.00802106986200663	0.00752768071957884	0.00752768071957884	0.00794646212741714	0.00794646212741714	0.00794646212741714	0.0076135693912899	0.0076135693912899	0.0076135693912899	0.0076135693912899	0.0076135693912899	0.00705103206511205	0.00705103206511205	0.00711168041944026	0.00711168041944026	0.00711168041944026	0.00673213297183413	0.00673213297183413	0.00673213297183413	0.00673213297183413	0.00716487375993371	0.00645719783957866	0.00644128206079066	0.00644128206079066	0.00597921106371989	0.00597921106371989	0.00597921106371989	0.0051542712464273	0.0051542712464273	0.0051542712464273	0.0048622983337777	0.0048622983337777	0.00449499435222338	0.00449499435222338
0.00715826906719732	0.00715826906719732	0.00715826906719732	0.00663143910511609	0.00663143910511609	0.00663143910511609	0.00663143910511609	0.00663143910511609	0.00663143910511609	0.00622616677494998	0.00622616677494998	0.00613265663262417	0.00613265663262417	0.00577720116660386	0.00577720116660386	0.00554510953133123	0.00554510953133123	0.00554510953133123	0.00554510953133123	0.00520112037066642	0.00520112037066642	0.0057824089410502	0.0057824089410502	0.0057824089410502	0.00539020991185719	0.00539020991185719	0.00539020991185719	0.00539020991185719	0.00561481472018554	0.00607688571725632	0.00607688571725632	0.00607688571725632	0.00607688571725632	0.00607688571725632	0.00607688571725632	0.00607688571725632	0.00567161338709021	0.00494034826938999	0.00494034826938999	0.00502266823313649	0.00545540902123608	0.00489148901922057	0.00489148901922057	0.00489148901922057	0.00451194157161443	0.00451194157161443	0.00451194157161443	0.00451194157161443	0.00451194157161443	0.00451194157161443	0.0041323941240083	0.0041323941240083	0.0041323941240083	0.0041323941240083	0.0041323941240083	0.00457955960504454	0.00499834101288285	0.00463103703132852	0.00463103703132852	0.00463103703132852	0.00463103703132852	0.00432933168825728	0.00432933168825728	0.00432933168825728	0.00432933168825728	0.00432933168825728	0.00432933168825728	0.00432933168825728	0.00432933168825728	0.00432933168825728	0.00432933168825728	0.00432933168825728	0.00432933168825728	0.00401756950041699	0.00442284183058309	0.00442284183058309	0.0047782972966034	0.0047782972966034	0.00501038893187603	0.00501038893187603	0.00501038893187603	0.00501038893187603	0.00535437809254084	0.00477308952215706	0.00477308952215706	0.00477308952215706	0.00477308952215706	0.00516528855135006	0.00516528855135006	0.00482129939068525	0.00494068374302172	0.00447861274595094	0.00447861274595094	0.00447861274595094	0.00447861274595094	0.00447861274595094	0.00447861274595094	0.00447861274595094	0.00447861274595094	0.00447861274595094	0.00520987786365116	0.00466548690283389	0.0042327461147343	0.00367020878855645	0.0043778847089115	0.0043778847089115	0.0043778847089115	0.00475743215651763	0.00475743215651763	0.00475743215651763	0.00475743215651763	0.00475743215651763	0.00475743215651763	0.00475743215651763	0.00475743215651763	0.00475743215651763	0.00475743215651763	0.0043102666754814	0.00389148526764309	0.00389148526764309	0.00389148526764309	0.00389148526764309	0.00389148526764309	0.00389148526764309	0.00389148526764309	0.00389148526764309	0.00389148526764309	0.00389148526764309	0.00389148526764309	0.00389148526764309	0.00389148526764309	0.00389148526764309	0.00389148526764309	0.00389148526764309	0.00389148526764309	0.00389148526764309	0.00348621293747699	0.00348621293747699	0.00313075747145667	0.00313075747145667	0.00289866583618405	0.00289866583618405	0.00289866583618405	0.00289866583618405	0.00255467667551923	0.00255467667551923	0.00313596524590302	0.00313596524590302	0.00313596524590302	0.00274376621671001	0.00274376621671001	0.00274376621671001	0.00274376621671001	0.00296837102503836	0.00296837102503836	0.00296837102503836	0.00296837102503836	0.00296837102503836	0.00296837102503836	0.00296837102503836	0.00296837102503836	0.00296837102503836	0.00223710590733813	0.00223710590733813	0.00223710590733813	0.00223710590733813	0.00152942998698308	0.00152942998698308	0.00152942998698308	0.00114988253937695	0.00114988253937695	0.00114988253937695	0.00114988253937695	0.00114988253937695	0.00114988253937695	0.00114988253937695	0.00114988253937695	0.00114988253937695	0.00114988253937695	0.00114988253937695
0.0074271815300681	0.00688279056925083	0.00688279056925083	0.00688279056925083	0.00688279056925083	0.00643562508821459	0.00581493807028257	0.00581493807028257	0.00543884489626514	0.00543884489626514	0.00543884489626514	0.00543884489626514	0.00543884489626514	0.00543884489626514	0.00543884489626514	0.00543884489626514	0.00543884489626514	0.00543884489626514	0.0044982902728011	0.0044982902728011	0.0044982902728011	0.0044982902728011	0.0044982902728011	0.0044982902728011	0.00415430111213629	0.00415430111213629	0.00415430111213629	0.00415430111213629	0.00396365987229027	0.00436893220245638	0.00436893220245638	0.00493146952863423	0.00493146952863423	0.00544130497580962	0.00544130497580962	0.00544130497580962	0.00544130497580962	0.00484064011974638	0.00484064011974638	0.00484064011974638	0.00484064011974638	0.00484064011974638	0.00484064011974638	0.00484064011974638	0.00484064011974638	0.00484064011974638	0.00423997526368314	0.00423997526368314	0.00423997526368314	0.00380723447558355	0.00380723447558355	0.00316585789038713	0.00282186872972232	0.00282186872972232	0.0024778795690575	0.0024778795690575	0.0024778795690575	0.0024778795690575	0.0024778795690575	0.00185719255112548	0.00185719255112548	0.00185719255112548	0.00185719255112548	0.00185719255112548	0.00240158351194276	0.00240158351194276	0.00240158351194276	0.00240158351194276	0.002848748992979	0.00346943601091101	0.00308988856330488	0.00308988856330488	0.00308988856330488	0.00308988856330488	0.00308988856330488	0.00308988856330488	0.00308988856330488	0.00308988856330488	0.00308988856330488	0.00308988856330488	0.00308988856330488	0.00403044318676892	0.00403044318676892	0.00403044318676892	0.00403044318676892	0.00403044318676892	0.00403044318676892	0.00437443234743373	0.00437443234743373	0.00437443234743373	0.00437443234743373	0.00396916001726763	0.00396916001726763	0.00340662269108978	0.00340662269108978	0.00289678724391439	0.00289678724391439	0.00289678724391439	0.00289678724391439	0.00289678724391439	0.00289678724391439	0.00289678724391439	0.00289678724391439	0.00289678724391439	0.00289678724391439	0.00289678724391439	0.00289678724391439	0.00289678724391439	0.00289678724391439	0.00349745209997763	0.00349745209997763	0.00349745209997763	0.00393019288807721	0.00393019288807721	0.00457156947327363	0.00491555863393845	0.00491555863393845	0.00491555863393845	0.00491555863393845	0.00491555863393845	0.00491555863393845	0.00491555863393845	0.00553624565187046	0.00553624565187046	0.00553624565187046	0.00553624565187046	0.00499185469105319	0.00499185469105319	0.00499185469105319	0.00499185469105319	0.00454468921001695	0.00392400219208493	0.00392400219208493	0.00430354963969106	0.00430354963969106	0.00430354963969106	0.00430354963969106	0.00430354963969106	0.00430354963969106	0.00430354963969106	0.00430354963969106	0.00430354963969106	0.00430354963969106	0.00336299501622703	0.00336299501622703	0.00336299501622703	0.00336299501622703	0.00336299501622703	0.00336299501622703	0.00301900585556221	0.00301900585556221	0.00301900585556221	0.00301900585556221	0.00301900585556221	0.00301900585556221	0.00301900585556221	0.00301900585556221	0.00301900585556221	0.0035288413027376	0.0035288413027376	0.0035288413027376	0.0035288413027376	0.0035288413027376	0.0035288413027376	0.0035288413027376	0.0035288413027376	0.0035288413027376	0.0035288413027376	0.0035288413027376	0.0035288413027376	0.0035288413027376	0.00292817644667436	0.00292817644667436	0.00292817644667436	0.00249543565857478	0.00249543565857478	0.00185405907337836	0.00151006991271354	0.00151006991271354	0.00151006991271354
0.00742869651595228	0.00790616987959208	0.00790616987959208	0.00790616987959208	0.00750089754942598	0.00750089754942598	0.00683814174472301	0.0064826862787027	0.0064826862787027	0.0064826862787027	0.0064826862787027	0.0064826862787027	0.0064826862787027	0.0064826862787027	0.0064826862787027	0.0064826862787027	0.0064826862787027	0.00571010996698228	0.00526294448594604	0.00526294448594604	0.0047361145238648	0.0043308421936987	0.0043308421936987	0.00374955362331491	0.00374955362331491	0.00374955362331491	0.00374955362331491	0.00374955362331491	0.00374955362331491	0.00374955362331491	0.00299063202596105	0.00299063202596105	0.00299063202596105	0.00244624106514377	0.00244624106514377	0.00244624106514377	0.00244624106514377	0.00204096873497767	0.00204096873497767	0.00204096873497767	0.00205852973371371	0.00205852973371371	0.00154869428653832	0.00154869428653832	0.00154869428653832	0.00154869428653832	0.00154869428653832	0.00199585976757456	0.00252268972965579	0.00252268972965579	0.00252268972965579	0.00252268972965579	0.00199585976757456	0.00199585976757456	0.00199585976757456	0.00199585976757456	0.00199585976757456	0.00199585976757456	0.00240113209774066	0.0028482975787769	0.0028482975787769	0.0028482975787769	0.0028482975787769	0.00237082421513709	0.00237082421513709	0.00237082421513709	0.00237082421513709	0.0027760965453032	0.0027760965453032	0.00343885235000616	0.00379430781602647	0.00379430781602647	0.00379430781602647	0.00379430781602647	0.00379430781602647	0.00379430781602647	0.00379430781602647	0.00379430781602647	0.00379430781602647	0.00379430781602647	0.0045668841277469	0.00501404960878314	0.00501404960878314	0.00554087957086438	0.00594615190103048	0.00594615190103048	0.00652744047141426	0.00652744047141426	0.00652744047141426	0.00652744047141426	0.00652744047141426	0.00652744047141426	0.00652744047141426	0.00728636206876812	0.00728636206876812	0.00728636206876812	0.0078307530295854	0.0078307530295854	0.0078307530295854	0.0078307530295854	0.0082360253597515	0.0082360253597515	0.00769163439893423	0.00769163439893423	0.00769163439893423	0.00820146984610962	0.00820146984610962	0.00820146984610962	0.00820146984610962	0.00775430436507338	0.00722747440299214	0.00722747440299214	0.00722747440299214	0.00722747440299214	0.00722747440299214	0.00722747440299214	0.00722747440299214	0.00722747440299214	0.00722747440299214	0.00722747440299214	0.00682220207282604	0.0063750365917898	0.0063750365917898	0.0063750365917898	0.0063750365917898	0.0063750365917898	0.00685250995542961	0.00685250995542961	0.00685250995542961	0.0064472376252635	0.0064472376252635	0.00578448182056054	0.00542902635454023	0.00542902635454023	0.00542902635454023	0.00542902635454023	0.00542902635454023	0.00542902635454023	0.00542902635454023	0.00542902635454023	0.00542902635454023	0.00542902635454023	0.0046564500428198	0.00420928456178356	0.00420928456178356	0.00368245459970233	0.00327718226953622	0.00327718226953622	0.00269589369915244	0.00269589369915244	0.00269589369915244	0.00269589369915244	0.00269589369915244	0.00269589369915244	0.00269589369915244	0.00193697210179858	0.00193697210179858	0.00193697210179858	0.0013925811409813	0.0013925811409813	0.0013925811409813	0.0013925811409813	0.000987308810815195	0.000987308810815195	0.000987308810815195	0.000987308810815195	0.000987308810815195	0.000477473363639804	0.000477473363639804	0.000477473363639804	0.000477473363639804	0.000477473363639804	0.000924638844676041	0.00145146880675728	0.00145146880675728	0.00145146880675728	0.00145146880675728	0.00145146880675728	0.00145146880675728	0.00145146880675728
0.00419034846029433	0.00419034846029433	0.00344941279168772	0.00344941279168772	0.00344941279168772	0.00344941279168772	0.00328220554434275	0.00328220554434275	0.00328220554434275	0.00328220554434275	0.00328220554434275	0.00436314178806349	0.00436314178806349	0.00436314178806349	0.00436314178806349	0.00536907897429283	0.00490700797722205	0.00490700797722205	0.00490700797722205	0.00458485371645375	0.00458485371645375	0.00458485371645375	0.00458485371645375	0.00458485371645375	0.00458485371645375	0.00492884287711857	0.00528429834313888	0.00487902601297278	0.00452357054695247	0.00452357054695247	0.00452357054695247	0.00452357054695247	0.00452357054695247	0.00452357054695247	0.00452357054695247	0.00452357054695247	0.00461833756246892	0.003869076071638	0.00324838905370599	0.00324838905370599	0.00324838905370599	0.00324838905370599	0.00324838905370599	0.00324838905370599	0.00324838905370599	0.00324838905370599	0.00324838905370599	0.00324838905370599	0.00324838905370599	0.00324838905370599	0.00324838905370599	0.00324838905370599	0.00324838905370599	0.00324838905370599	0.00324838905370599	0.00324838905370599	0.00324838905370599	0.00324838905370599	0.00324838905370599	0.00324838905370599	0.00324838905370599	0.00324838905370599	0.00324838905370599	0.00324838905370599	0.00324838905370599	0.00398932472231259	0.00398932472231259	0.00398932472231259	0.00398932472231259	0.00415653196965756	0.00415653196965756	0.00415653196965756	0.00415653196965756	0.00307559572593683	0.00307559572593683	0.00307559572593683	0.00307559572593683	0.00206965853970748	0.00206965853970748	0.00253172953677826	0.00253172953677826	0.00253172953677826	0.00285388379754656	0.00285388379754656	0.00285388379754656	0.00285388379754656	0.00285388379754656	0.00250989463688174	0.00215443917086143	0.00215443917086143	0.00255971150102754	0.00291516696704785	0.00291516696704785	0.00291516696704785	0.00291516696704785	0.00291516696704785	0.00291516696704785	0.00291516696704785	0.00245309596997707	0.00282039995153139	0.00356966144236231	0.00419034846029433	0.00419034846029433	0.00419034846029433	0.00419034846029433	0.00419034846029433	0.00419034846029433	0.00419034846029433	0.00419034846029433	0.00419034846029433	0.00419034846029433	0.00419034846029433	0.00419034846029433	0.00419034846029433	0.00419034846029433	0.00419034846029433	0.00419034846029433	0.00419034846029433	0.00419034846029433	0.00419034846029433	0.00419034846029433	0.00419034846029433	0.00419034846029433	0.00419034846029433	0.00419034846029433	0.00419034846029433	0.00419034846029433	0.00344941279168772	0.00344941279168772	0.00344941279168772	0.00344941279168772	0.00328220554434275	0.00328220554434275	0.00328220554434275	0.00328220554434275	0.00328220554434275	0.00400768632204318	0.00400768632204318	0.00400768632204318	0.00400768632204318	0.00441295865220928	0.0039508876551385	0.0039508876551385	0.0039508876551385	0.0036287333943702	0.0036287333943702	0.0036287333943702	0.0036287333943702	0.0036287333943702	0.0036287333943702	0.00397272255503502	0.00397272255503502	0.00356745022486891	0.0032119947588486	0.0032119947588486	0.0032119947588486	0.0032119947588486	0.0032119947588486	0.0032119947588486	0.0032119947588486	0.0032119947588486	0.00330676177436506	0.00255750028353414	0.00193681326560212	0.00193681326560212	0.00193681326560212	0.00193681326560212	0.00193681326560212	0.00193681326560212	0.00193681326560212	0.00193681326560212	0.00193681326560212	0.00193681326560212	0.00193681326560212	0.00193681326560212	0.00193681326560212	0.00193681326560212	0.00193681326560212	0.00193681326560212	0.00193681326560212
0.00183947701931664	0.00183947701931664	0.00183947701931664	0.00140673623121706	0.00140673623121706	0.00140673623121706	0.00140673623121706	0.00140673623121706	0.00140673623121706	0.00140673623121706	0.00140673623121706	0.00140673623121706	0.00140673623121706	0.00140673623121706	0.00140673623121706	0.00140673623121706	0.00140673623121706	0.00140673623121706	0.00140673623121706	0.00204811281641348	0.00204811281641348	0.00204811281641348	0.00204811281641348	0.00204811281641348	0.00204811281641348	0.00204811281641348	0.00204811281641348	0.00254150195884127	0.00210876117074169	0.00210876117074169	0.00210876117074169	0.00210876117074169	0.00210876117074169	0.00210876117074169	0.00210876117074169	0.00210876117074169	0.00210876117074169	0.00263559113282293	0.00263559113282293	0.00263559113282293	0.00263559113282293	0.00218842565178669	0.00218842565178669	0.00218842565178669	0.00218842565178669	0.00218842565178669	0.00166159568970545	0.00166159568970545	0.00166159568970545	0.00166159568970545	0.00166159568970545	0.00166159568970545	0.00166159568970545	0.00218842565178669	0.00218842565178669	0.00218842565178669	0.00218842565178669	0.00218842565178669	0.00218842565178669	0.00218842565178669	0.00218842565178669	0.00218842565178669	0.00218842565178669	0.00218842565178669	0.00218842565178669	0.00218842565178669	0.00262116643988627	0.00262116643988627	0.00262116643988627	0.00262116643988627	0.00262116643988627	0.00262116643988627	0.00262116643988627	0.00262116643988627	0.00262116643988627	0.00262116643988627	0.00262116643988627	0.00262116643988627	0.00262116643988627	0.00262116643988627	0.00262116643988627	0.00197978985468986	0.00197978985468986	0.00197978985468986	0.00197978985468986	0.00197978985468986	0.00197978985468986	0.00197978985468986	0.00197978985468986	0.00148640071226206	0.00148640071226206	0.00148640071226206	0.00148640071226206	0.00148640071226206	0.00148640071226206	0.00148640071226206	0.00148640071226206	0.00148640071226206	0.00148640071226206	0.000959570750180822	0.000959570750180822	0.000959570750180822	0.000959570750180822	0.000959570750180822	0.00140673623121706	0.00140673623121706	0.00140673623121706	0.00140673623121706	0.00140673623121706	0.00140673623121706	0.00140673623121706	0.00140673623121706	0.00140673623121706	0.00140673623121706	0.00140673623121706	0.000879906269135821	0.000879906269135821	0.000879906269135821	0.000879906269135821	0.000879906269135821	0.000879906269135821	0.000879906269135821	0.000879906269135821	0.000879906269135821	0.000879906269135821	0.000879906269135821	0.000879906269135821	0.000879906269135821	0.000447165481036237	0.000447165481036237	0.000447165481036237	0.000447165481036237	0.000447165481036237	0.000447165481036237	0.000447165481036237	0.000447165481036237	0.000447165481036237	0.000447165481036237	0.000447165481036237	0.000447165481036237	0.000447165481036237	0.000447165481036237	0.000447165481036237	0.000447165481036237	0.00108854206623265	0.00108854206623265	0.00108854206623265	0.00108854206623265	0.00108854206623265	0.00108854206623265	0.00108854206623265	0.00108854206623265	0.00108854206623265	0.00108854206623265	0.00108854206623265	0.00108854206623265	0.00108854206623265	0.00108854206623265	0.00108854206623265	0.00108854206623265	0.00108854206623265	0.00108854206623265	0.00108854206623265	0.00108854206623265	0.00108854206623265	0.00108854206623265	0.000641376585196418	0.000641376585196418	0.000641376585196418	0.000641376585196418	0.000641376585196418	0.000641376585196418	0.000641376585196418	0.000641376585196418	0.000641376585196418	0.000641376585196418	0.000641376585196418	0.000641376585196418	0.000641376585196418	0.000641376585196418
0.00277865276441969	0.0027161294598482	0.00245151032515856	0.00281881430671289	0.00281881430671289	0.00281881430671289	0.00281881430671289	0.00281881430671289	0.00281881430671289	0.00281881430671289	0.00281881430671289	0.00281881430671289	0.00281881430671289	0.00281881430671289	0.00237164882567665	0.00237164882567665	0.00237164882567665	0.00237164882567665	0.00266362173832624	0.00266362173832624	0.00266362173832624	0.00266362173832624	0.00266362173832624	0.00266362173832624	0.00266362173832624	0.00266362173832624	0.00266362173832624	0.00266362173832624	0.00266362173832624	0.00266362173832624	0.00266362173832624	0.00230816627230593	0.00181477712987813	0.00181477712987813	0.00181477712987813	0.00181477712987813	0.00181477712987813	0.00181477712987813	0.00181477712987813	0.00181477712987813	0.00181477712987813	0.00181477712987813	0.00181477712987813	0.00181477712987813	0.00181477712987813	0.00181477712987813	0.00181477712987813	0.00181477712987813	0.00145932166385782	0.00145932166385782	0.00145932166385782	0.00145932166385782	0.00145932166385782	0.00102658087575824	0.00102658087575824	0.00102658087575824	0.00102658087575824	0.000659276894203917	0.000659276894203917	0.000659276894203917	0.000659276894203917	0.000659276894203917	0.000659276894203917	0.000659276894203917	0.000659276894203917	0.000556592047339235	0.000556592047339235	0.000556592047339235	0.000556592047339235	0.000556592047339235	0.000556592047339235	0.000556592047339235	0.000556592047339235	0.000556592047339235	0.000556592047339235	0.000556592047339235	0.000556592047339235	0.00100375752837547	0.00100375752837547	0.00100375752837547	0.000711784615725877	0.000711784615725877	0.000711784615725877	0.000711784615725877	0.000711784615725877	0.000711784615725877	0.000711784615725877	0.000711784615725877	0.000711784615725877	0.000711784615725877	0.000711784615725877	0.000711784615725877	0.000711784615725877	0.000711784615725877	0.00106724008174619	0.00156062922417399	0.00156062922417399	0.00156062922417399	0.00156062922417399	0.00156062922417399	0.00156062922417399	0.00156062922417399	0.00156062922417399	0.00156062922417399	0.00156062922417399	0.00156062922417399	0.00156062922417399	0.00156062922417399	0.00156062922417399	0.00156062922417399	0.00156062922417399	0.0019160846901943	0.0019160846901943	0.0019160846901943	0.0019160846901943	0.0019160846901943	0.0019160846901943	0.0019160846901943	0.0019160846901943	0.0019160846901943	0.0019160846901943	0.0019160846901943	0.0019160846901943	0.0019160846901943	0.0019160846901943	0.0019160846901943	0.0019160846901943	0.00165146555550466	0.00201876953705898	0.00201876953705898	0.00201876953705898	0.00201876953705898	0.00201876953705898	0.00201876953705898	0.00201876953705898	0.00201876953705898	0.00201876953705898	0.00201876953705898	0.00201876953705898	0.00157160405602274	0.00157160405602274	0.00157160405602274	0.00157160405602274	0.00157160405602274	0.00157160405602274	0.00157160405602274	0.00157160405602274	0.00157160405602274	0.00157160405602274	0.00157160405602274	0.00157160405602274	0.00157160405602274	0.00157160405602274	0.00157160405602274	0.00157160405602274	0.00157160405602274	0.00121614859000243	0.000722759447574634	0.000722759447574634	0.000722759447574634	0.000722759447574634	0.000722759447574634	0.000722759447574634	0.000722759447574634	0.000722759447574634	0.000722759447574634	0.000722759447574634	0.000722759447574634	0.000722759447574634	0.000722759447574634	0.000722759447574634	0.000722759447574634	0.000722759447574634	0.000367303981554322	0.000367303981554322	0.000367303981554322	0.000367303981554322	0.000367303981554322	0.000367303981554322	0.000367303981554322
0.00173685439940487	0.00173685439940487	0.00173685439940487	0.00173685439940487	0.00173685439940487	0.00173685439940487	0.00173685439940487	0.00119246343858759	0.00119246343858759	0.00119246343858759	0.00119246343858759	0.00119246343858759	0.00119246343858759	0.00119246343858759	0.00119246343858759	0.00119246343858759	0.00119246343858759	0.00119246343858759	0.00119246343858759	0.00119246343858759	0.00119246343858759	0.00119246343858759	0.00119246343858759	0.00119246343858759	0.000665633476506357	0.000665633476506357	0.000665633476506357	0.000665633476506357	0.000665633476506357	0.000665633476506357	0.000665633476506357	0.000665633476506357	0.00103293745806068	0.00103293745806068	0.00103293745806068	0.00121742898049231	0.00121742898049231	0.00121742898049231	0.00101386650105673	0.00101386650105673	0.00101386650105673	0.00101386650105673	0.00161760160154661	0.00161760160154661	0.00161760160154661	0.00161760160154661	0.00161760160154661	0.00161760160154661	0.00161760160154661	0.00161760160154661	0.00161760160154661	0.00161760160154661	0.00161760160154661	0.00161760160154661	0.00161760160154661	0.00161760160154661	0.00115553060447583	0.00115553060447583	0.00115553060447583	0.00115553060447583	0.00115553060447583	0.00115553060447583	0.00115553060447583	0.00115553060447583	0.00115553060447583	0.00115553060447583	0.00115553060447583	0.00115553060447583	0.00115553060447583	0.00115553060447583	0.00115553060447583	0.00115553060447583	0.00115553060447583	0.00115553060447583	0.00115553060447583	0.00115553060447583	0.00115553060447583	0.00115553060447583	0.00115553060447583	0.00115553060447583	0.00115553060447583	0.00115553060447583	0.00115553060447583	0.00115553060447583	0.00115553060447583	0.00115553060447583	0.00115553060447583	0.00168236056655707	0.00168236056655707	0.00168236056655707	0.00168236056655707	0.00168236056655707	0.00168236056655707	0.00168236056655707	0.00131505658500275	0.00131505658500275	0.00131505658500275	0.00113056506257112	0.00113056506257112	0.00113056506257112	0.00113056506257112	0.0013341275420067	0.0013341275420067	0.0013341275420067	0.000730392441516816	0.000730392441516816	0.000730392441516816	0.000730392441516816	0.000730392441516816	0.000730392441516816	0.000730392441516816	0.000730392441516816	0.000730392441516816	0.000730392441516816	0.000730392441516816	0.000730392441516816	0.000730392441516816	0.000730392441516816	0.000730392441516816	0.00119246343858759	0.00119246343858759	0.00119246343858759	0.00119246343858759	0.00119246343858759	0.00119246343858759	0.00119246343858759	0.00119246343858759	0.00119246343858759	0.00119246343858759	0.00119246343858759	0.00119246343858759	0.00119246343858759	0.00119246343858759	0.00119246343858759	0.00119246343858759	0.00119246343858759	0.00119246343858759	0.00119246343858759	0.00119246343858759	0.00119246343858759	0.00119246343858759	0.00119246343858759	0.00119246343858759	0.00119246343858759	0.00119246343858759	0.00119246343858759	0.00119246343858759	0.00119246343858759	0.00119246343858759	0.000665633476506357	0.000665633476506357	0.000665633476506357	0.000665633476506357	0.000665633476506357	0.000665633476506357	0.000665633476506357	0.000665633476506357	0.00103293745806068	0.00103293745806068	0.00103293745806068	0.00121742898049231	0.00121742898049231	0.00121742898049231	0.00101386650105673	0.00101386650105673	0.00101386650105673	0.00101386650105673	0.00161760160154661	0.00161760160154661	0.00161760160154661	0.00161760160154661	0.00161760160154661	0.00161760160154661	0.00161760160154661	0.00161760160154661	0.00161760160154661	0.00161760160154661	0.00161760160154661	0.00161760160154661	0.00161760160154661
0.00187590726430378	0.00187590726430378	0.00187590726430378	0.00187590726430378	0.00187590726430378	0.00187590726430378	0.00187590726430378	0.00187590726430378	0.00187590726430378	0.00187590726430378	0.00187590726430378	0.00187590726430378	0.00187590726430378	0.00187590726430378	0.00187590726430378	0.00187590726430378	0.00187590726430378	0.00187590726430378	0.00187590726430378	0.00187590726430378	0.00187590726430378	0.00187590726430378	0.00187590726430378	0.00153191810363896	0.00153191810363896	0.00113971907444596	0.00113971907444596	0.00113971907444596	0.00113971907444596	0.00113971907444596	0.00113971907444596	0.00113971907444596	0.00113971907444596	0.00113971907444596	0.00113971907444596	0.00113971907444596	0.00113971907444596	0.00113971907444596	0.000795729913781139	0.000795729913781139	0.000795729913781139	0.000795729913781139	0.000795729913781139	0.000483967725940849	0.000483967725940849	0.000483967725940849	0.000483967725940849	0.000483967725940849	0.00016181346517255	0.00016181346517255	0.00016181346517255	0.00016181346517255	0.00016181346517255	0.00016181346517255	0.00016181346517255	0.00016181346517255	0.00016181346517255	0.00016181346517255	0.00016181346517255	0	0	0	0	0	0	0	0	0	0	0	0	0	0	0	0	0	0	0	0	0	0	0	0	0	0	0	0.000343989160664818	0.000343989160664818	0.000343989160664818	0.000343989160664818	0.000343989160664818	0.000343989160664818	0.000343989160664818	0.000343989160664818	0.000343989160664818	0.000343989160664818	0.000343989160664818	0.000343989160664818	0.000343989160664818	0.000343989160664818	0.000343989160664818	0.000687978321329635	0.000687978321329635	0.000687978321329635	0.000687978321329635	0.000687978321329635	0.000687978321329635	0.000687978321329635	0.000687978321329635	0.000687978321329635	0.000687978321329635	0.000687978321329635	0.000687978321329635	0.000687978321329635	0.000687978321329635	0.000687978321329635	0.000687978321329635	0.000687978321329635	0.000687978321329635	0.000687978321329635	0.000687978321329635	0.000687978321329635	0.000687978321329635	0.000687978321329635	0.000687978321329635	0.000687978321329635	0.000687978321329635	0.000687978321329635	0.000687978321329635	0.000687978321329635	0.000687978321329635	0.000687978321329635	0.000687978321329635	0.000687978321329635	0.000687978321329635	0.000687978321329635	0.000687978321329635	0.000687978321329635	0.000687978321329635	0.000687978321329635	0.000687978321329635	0.000687978321329635	0.000687978321329635	0.000687978321329635	0.000687978321329635	0.000687978321329635	0.000687978321329635	0.000687978321329635	0.000343989160664818	0.000343989160664818	0.000343989160664818	0.000343989160664818	0.000343989160664818	0.000343989160664818	0.000343989160664818	0.000343989160664818	0.000343989160664818	0.000343989160664818	0.000343989160664818	0.000343989160664818	0.000343989160664818	0.000343989160664818	0.000343989160664818	0	0	0	0	0	0	0	0	0	0	0	0	0	0	0	0	0
