1.12821481247861	1.12900570902185	1.14423761167269	1.16127830408701	1.15097529449103	1.16795125899301	1.16014835309002	1.1277865137828	1.12314699149558	1.14440386201554	1.11766014500584	1.15415930090356	1.14022471330416	1.16784144588043	1.14853613184058	1.14857174485991	1.14543727730633	1.14119041648186	1.13262221267128	1.16195772052618	1.17650949285935	1.16430151539878	1.18414114469398	1.20013645201809	1.18019387997857	1.19172838896485	1.19988557844404	1.21834459967423	1.21605196145983	1.23390002928482	1.22931586584625	1.23089762331714	1.22733111830581	1.21970965341522	1.20318413749541	1.19253946709195	1.20337119249431	1.18194536837436	1.17091095589201	1.15746106000463	1.15046197985574	1.15377017256426	1.15568589746181	1.16401967306366	1.16616135908193	1.15983067573799	1.1679430128792	1.18295420212332	1.18416004396706	1.20287231330365	1.2108044674507	1.21085416551132	1.2189878154949	1.21055656611352	1.20621714442151	1.20837662924724	1.21310561704414	1.22302774532711	1.23223653873389	1.26391339620176	1.23468895471567	1.22907873405552	1.21613830492299	1.22157495592747	1.21404580916221	1.20585093922178	1.19524873002895	1.20434517678274	1.20437298436814	1.17891382503981	1.19621876321709	1.16047573788707	1.16104626733629	1.14849107334136	1.1511323220722	1.17157253423181	1.17053311177299	1.18186186050652	1.18463100484306	1.17618913016013	1.16879626124843	1.19548530628303	1.2118623212728	1.20798117138331	1.21273626652317	1.2376007073534	1.23790350414716	1.22983131100007	1.22573452862211	1.25029802066938	1.26067010243875	1.26459211133986	1.26290595965806	1.25790380034743	1.23177929082863	1.23121693119956	1.2421208934931	1.23276176206012	1.21926582223852	1.25052837398604	1.24880495690321	1.25190953194991	1.23912678467782	1.24218385919088	1.23583580130339	1.23355253448653	1.24287597188437	1.2488902262851	1.25141579776059	1.2375339338931	1.2805988131361	1.26941997923192	1.26321926632942	1.28175135689966	1.28346368870283	1.28646009171601	1.30426533498555	1.30679204972698	1.29425141005646	1.28977232225982	1.28339640169235	1.29934070281605	1.24894699643707	1.26113128386321	1.25925348803561	1.22197207185605	1.22250222730945	1.20969878825849	1.20553773075294	1.20874630688669	1.22743791653488	1.21647653981652	1.21479390441939	1.20585825994011	1.24053117795757	1.24686259944244	1.2528632769621	1.26706725651309	1.27486446662209	1.29091798805796	1.29772196909565	1.27611857167161	1.28570160073315	1.26684469259953	1.29393937686865	1.2757775161686	1.32871571066432	1.31791498444557	1.30564302743912	1.30014847150408	1.28530249389521	1.26805798296979	1.24549176085615	1.24639306605461	1.21802179198524	1.23874339826516	1.22373571176128	1.23256092228155	1.19171565482859	1.16274128806119	1.15544082995987	1.15188430195846	1.13694782281296	1.16186247190039	1.17532198234616	1.17131746188301	1.18106594842459	1.16969318212507	1.15908038884862	1.19936397461537	1.19043752923734	1.2034425670595	1.20397406012258	1.23317403637531	1.22717777903589	1.21986888478108	1.21663885136396	1.23290643437058	1.24723830546521	1.24551474959928	1.24430207372781	1.21989682351734	1.19586016108074	1.17761340054087	1.20495243258106	1.17207229979253	1.17837731485816	1.1687327636035	1.18663911912796	1.17898717362764	1.15209245780404	1.16243232106838	1.15357199260414	1.16080254559717	1.16663363352086	1.18087346092435	1.16550080591806	1.18278607330986	1.20524178756118
0.959653774306506	0.969340088221275	0.964324766195811	1.00970391923718	1.04531999106555	1.04685730480898	1.04644693888517	1.02697524394957	1.04786478734499	1.04474254115476	1.0562957923367	1.07898077879282	1.08037737100874	1.07349645894611	1.07464441143893	1.05630845346996	1.03044357778463	1.0222459373975	1.00426181927555	1.02260854282562	1.02365245688422	1.02242104291651	1.02031800109972	1.0169346791333	1.02042207998702	1.02073958678057	1.03459570664167	1.02089758037499	1.02916020187352	1.00842305917549	1.02169153023929	1.04208063737709	1.02837990991655	1.01084858555476	1.01860207942917	1.02231584784294	1.02218595042524	1.02720638044399	1.0280953296467	1.04295666198489	1.03895776055929	1.02604266631907	1.04453173183176	1.02183856103464	1.03880239558163	1.09515105414078	1.08039017954423	1.06540132146457	1.05733680801428	1.06801535133588	1.0708701523874	1.04633461095425	1.0479977844243	1.0681477783999	1.06551553381205	1.06771002157348	1.0664580127133	1.05006996479655	1.02621502964532	1.0115840532034	1.01511206142521	0.982689307725163	0.967475422933376	0.96824093819195	0.982442498120847	0.957919736891759	0.955842695549846	0.950892472917067	0.937351774855729	0.930709535163207	0.936602216384236	0.952332547317364	0.957936784246043	0.964611153146614	0.974728916660701	0.978357865714787	0.974678485739434	0.990515618047193	0.995935660668152	0.99802865660707	1.00347931141881	1.02283912654647	1.02370669787128	1.03774362428445	1.0465122757025	1.06375093111692	1.0542877261883	1.05181404822561	1.05638966576236	1.07588108712467	1.09377068968289	1.12870604245719	1.16135465402062	1.15229471106243	1.15677282466396	1.13328171261559	1.14675648284071	1.14593774344947	1.17134583698435	1.17675345511563	1.17645481369838	1.18003264152028	1.15623997674711	1.1398596424418	1.10760446831363	1.1100171757285	1.1159028459813	1.12316842420449	1.11990737419837	1.08309682770086	1.0884816144659	1.10539826483508	1.11115758399845	1.11972145399925	1.11331171255375	1.11077351199923	1.09421265986077	1.0976595548942	1.11305493055955	1.12232515719205	1.09253733595196	1.09628505249869	1.10077336283183	1.10037576857355	1.08401912628688	1.0974259121227	1.11946024896821	1.12630900267867	1.11361477905612	1.11636129179545	1.10552560749859	1.10404876788334	1.11932737549365	1.1583082934177	1.15877842563192	1.11461645737204	1.13185621548497	1.14421607103071	1.10916684770927	1.09417063595936	1.11958778667731	1.11517839702002	1.12137504148512	1.1105153141654	1.09880287208475	1.0816802556728	1.05910140833979	1.0566162681696	1.04025099601755	1.01068725888263	1.02283269248344	1.01598106453055	0.999177168628196	0.986842091186284	0.975667570437226	0.967255689486057	0.958225714780854	0.943643254836884	0.948674369843526	0.96343414433142	0.97323505311462	0.968449108606151	0.959605221147744	0.969145243937828	0.978725093208876	1.01020289797371	0.979964375020522	0.995884990620587	1.0155516392502	1.02496107867405	1.03619427796048	1.04154803013978	1.04054560467545	1.0611060920018	1.048334254117	1.04663885668692	1.06089105935065	1.04608994712139	1.09437063192539	1.11963573776826	1.130386853066	1.11724562355471	1.08797577777112	1.09647347917917	1.0897987872403	1.09005970484118	1.09987274888468	1.11050331216965	1.10075317019084	1.08862780514735	1.07556912039248	1.0374284643283	1.03027465465963	1.0238452363287	1.02863035604712	1.02297550823243	1.01718834533261	1.0093774083228	1.01919728429698
0.777629456544554	0.780845169922531	0.783654792649884	0.785715612702494	0.797630683669311	0.802011849861985	0.816478180164926	0.830305631536339	0.818167283583037	0.824548928678381	0.841553472724013	0.860218754601721	0.868180558710485	0.901393769984672	0.878470933524662	0.864314382977361	0.856572099047887	0.871006672663989	0.873627560684489	0.863564274577387	0.88710455025746	0.880821832518392	0.862955435795486	0.858398719728247	0.849264710049313	0.858858253060766	0.85724612471905	0.863337138393485	0.870995145811034	0.880001284518108	0.866652169135707	0.875604602850901	0.866257724151173	0.866570620365493	0.885307888241386	0.880818562107703	0.907286277214189	0.909437622922942	0.905901955394439	0.923008359600073	0.938496112018859	0.943955103425869	0.943120466327382	0.942585842713854	0.947218809827466	0.922486279227158	0.907391243572655	0.898756130266396	0.8860956803201	0.864613132542446	0.875307233567568	0.863569098627055	0.859614740342864	0.855092557180695	0.846500040395493	0.833672198780312	0.8078128871141	0.817016543893133	0.826042677983631	0.836630531809117	0.83298289004299	0.829837745823391	0.824046869138137	0.819045502120897	0.801596420084678	0.80439228183954	0.805033594762303	0.808179361973921	0.822258213737156	0.85239734184592	0.862908393983479	0.865421797868424	0.884118336069798	0.883836446592162	0.909453918972218	0.899580604097008	0.892256042843257	0.893551309139986	0.907262287569307	0.905778147704677	0.892024283092255	0.871683795599737	0.88038240496615	0.880494736127528	0.884782682891053	0.895748328839831	0.86830287247131	0.862884786976468	0.876072151578645	0.877793218929617	0.879936115562528	0.893606572796429	0.900608438066937	0.900132698354052	0.898628141005985	0.923418182667539	0.909824161780562	0.918356891681514	0.927073356948146	0.942679601696677	0.959183236543117	0.969970906839355	0.946699296303688	0.938225656306483	0.943965588606118	0.971901193903354	0.952737282943197	0.946479806855989	0.959826961776095	0.949383186879629	0.946520357925331	0.939030966471994	0.933229541680764	0.939240699629018	0.943940792246919	0.943947671311413	0.960114602765611	0.959298209379893	0.944001829247872	0.934918661975226	0.935587936213409	0.95119695876531	0.959313024019284	0.964349786649179	0.999177827402193	0.969080047244501	0.979219320900126	0.998927057122089	0.993306909735	0.994025139597852	1.00895008095858	1.00927521583122	0.990067686832051	0.959840188666773	0.952254602959565	0.947840183001687	0.916116630515038	0.915567581375476	0.919088043089809	0.901610735973792	0.906459043360589	0.879203538946	0.886975152633218	0.87193761295077	0.876487207613543	0.884649594735108	0.877897499872418	0.894813021294056	0.888364220418897	0.883831366584203	0.87280284087872	0.869183887011242	0.849623960475057	0.860640644037571	0.845134385471511	0.853940863795628	0.8685767044643	0.884625736177005	0.878626466271629	0.883829287941287	0.88588003437277	0.899999418859918	0.906004646355194	0.884024396390857	0.892526916141264	0.891771660610523	0.895128544799757	0.886260515938101	0.872189825478236	0.861916655762117	0.870398393387678	0.876070384553546	0.880314096428123	0.877464596240605	0.851734824821773	0.866525611300603	0.861741450402107	0.876914909455896	0.874273268625932	0.879814599446549	0.877068947770922	0.865911293620089	0.890224980497022	0.870521467386007	0.864675544125584	0.872052445375187	0.89273026910128	0.892024088733292	0.906417091273673	0.883072125085212	0.873754931617705	0.866231885723509	0.869313151969878	0.890639923116165	0.854622817325436	0.872307776988914	0.874214852235162	0.859981767058862	0.855854580329735
0.631544370945637	0.618740967001868	0.632924727925079	0.631796516367855	0.648866393438649	0.659228150597236	0.655927082390242	0.659751356899985	0.65939330308358	0.653345637716101	0.652836889251275	0.670297573699821	0.668010773012011	0.689236000509935	0.680135100198229	0.685899857116052	0.684488343495612	0.684480476500975	0.678940672402389	0.684289598209031	0.701534875262938	0.69838470801224	0.705787939861779	0.687892739959802	0.702303739870653	0.682266642686221	0.691819517227559	0.700764042773966	0.688937157391858	0.693319250286949	0.680260476187888	0.681434410397711	0.674576236061553	0.667914004108957	0.664723556624631	0.684185611066659	0.682901406487928	0.688461856647418	0.689903030712893	0.66914339943318	0.686165464331076	0.687505926430587	0.701822668524352	0.725033496496469	0.716507599930347	0.712877880672898	0.696687937705931	0.677069213169875	0.669782730233711	0.678273449326477	0.681749426218133	0.674359042345113	0.678776209895262	0.682386808239128	0.678997399657753	0.684090709509334	0.679663815599457	0.684653430736044	0.697586856739101	0.712510699790796	0.70615511495105	0.691902339535196	0.705907769520246	0.709446792079304	0.694946918486015	0.699775142933758	0.691380019979075	0.686649572649344	0.698764765541654	0.707716977027667	0.71345657308415	0.709607259154955	0.722562499058982	0.732268546151746	0.719543909970295	0.743541505941738	0.764348069279074	0.742877088003103	0.728040665124632	0.711646109649295	0.715149458801034	0.710980718984055	0.707628563017497	0.713650605910233	0.71019683986021	0.716077012664621	0.729688607017725	0.706134269332536	0.704870457268704	0.697104962524505	0.718975028469987	0.729139650496273	0.741360873025917	0.755052804847762	0.762977444992143	0.754194132726886	0.776976414790707	0.751730386801284	0.772123570378415	0.787973092761828	0.762583163236227	0.809759326759716	0.793252584690306	0.794771145384784	0.78244436664092	0.770650423120668	0.762236372610561	0.774421736171912	0.781546926285555	0.791100931470157	0.779850064903579	0.771212934481633	0.777931027875553	0.760044429251995	0.77625101366865	0.770186164593808	0.765011341974798	0.765317359533697	0.764701686949225	0.758366565568414	0.737065834915243	0.734651044585727	0.729303017145407	0.753285263053046	0.759237991500013	0.752028798458871	0.735669366246823	0.748682923218958	0.759549080460006	0.775343202960558	0.786792769839792	0.804235291606514	0.804297241915782	0.797589500511222	0.777524808878721	0.761056071005795	0.764491725319593	0.767879224616526	0.770329460375919	0.742104557488984	0.748244187896609	0.737669363501484	0.754186098200997	0.74936225069793	0.745224678372198	0.759123139784265	0.77247917123735	0.778733986364404	0.754445781902342	0.778562416584343	0.764222518856522	0.761961218820933	0.747343185258312	0.750817661362786	0.728987729114756	0.722622848383438	0.73565347867709	0.721626827552979	0.7171145291149	0.719731438798027	0.737769411575197	0.704191345435509	0.734157310079794	0.735867716732031	0.740955236842723	0.729679936647238	0.721166645675362	0.705354444248369	0.706151812946925	0.711433429383184	0.699689200646447	0.699730157492303	0.709582758131445	0.729603908268125	0.7055360316361	0.708623535742619	0.696959086633824	0.699372076229019	0.705070212414566	0.720287257274983	0.720494907814811	0.720682853046953	0.726411562150859	0.711510366466099	0.716153608720445	0.711959041493779	0.731580719230901	0.713615185946716	0.732925391399854	0.731819127814012	0.73473161707447	0.735821116704379	0.712655173056327	0.710899564996566	0.704094260192868	0.721550767674018	0.717068302805504	0.71698889583116	0.696813178400709
0.523801139741212	0.531229666578329	0.550362377498426	0.553741849985721	0.567907732493832	0.569043946129257	0.58409375007755	0.573603427654971	0.567497168527067	0.556532196343196	0.547466186564436	0.535390130709903	0.545103832664597	0.544868775266115	0.541771089536292	0.540396090306385	0.544021218344603	0.536056808488415	0.530701895553299	0.528374945164845	0.532672761852459	0.54970281756269	0.554070655355224	0.577191525839584	0.570608775011253	0.574811766251917	0.564500988525063	0.539499716119131	0.550199446727742	0.549677977754099	0.545057204170997	0.55636489205452	0.549200935256427	0.55278545085764	0.536470666684655	0.542332012310844	0.549018320240177	0.560318257443299	0.560411943212529	0.580630848934635	0.577719113202483	0.550739555566083	0.569798212318199	0.568805531290517	0.581925712217957	0.579949624407368	0.605030701127855	0.604082593266458	0.584198953955578	0.574077164613721	0.571858523736227	0.560920865247941	0.560033539671034	0.582894868448614	0.580485405560376	0.554782543391294	0.559107963587279	0.561319654143359	0.544588339085163	0.553701095596109	0.561299436115111	0.579153096807921	0.577711375414268	0.596432495409862	0.606199624681665	0.602077560893762	0.604953454640622	0.607407629941109	0.613010412152214	0.608988082691448	0.612649874376183	0.606440485791152	0.605401073188819	0.590922377227333	0.588576288782464	0.577626747034128	0.572529656345232	0.575388792010029	0.560245858756426	0.568797799159744	0.577715330851677	0.574190172470545	0.572360956806032	0.572824013262376	0.586314032783861	0.582442536097189	0.583889587057158	0.608732577486464	0.602957626876193	0.607562306974666	0.624593375019726	0.634714170956493	0.646255599027546	0.652337821674791	0.662805606577575	0.657712305793019	0.633886560762903	0.633984336427044	0.629806190830395	0.621119860430355	0.623101817725395	0.631616021475782	0.613489852049681	0.609339813563158	0.611941052139215	0.590056116253932	0.587099794803585	0.579632386054625	0.608134688079412	0.611681819274089	0.624074414555413	0.631787722017476	0.631913619682404	0.628035857222718	0.61869821797323	0.602995158319088	0.618007374113867	0.617035644173457	0.613985377393586	0.617942257753845	0.615617308837842	0.609883339808261	0.604262661588456	0.607997009476775	0.620372725599056	0.637950752379821	0.651538855428665	0.65828559854332	0.63253386016036	0.62465103586813	0.636000289056654	0.643551320200641	0.632510099608234	0.659069394845927	0.670355949071775	0.662262532705005	0.646175392042235	0.640821925956602	0.638836871000928	0.630698467843392	0.637731796627801	0.654496320032663	0.639292816053658	0.613607731786362	0.640132759745794	0.612098200686025	0.611000101906671	0.627670166166992	0.63434836744362	0.635564382402826	0.64761411005145	0.652061959128639	0.654023048288282	0.644774134780113	0.637029813586224	0.642387360834235	0.627341645035326	0.635692683020186	0.635196373440905	0.615816944519401	0.605190390296179	0.599177386418846	0.578967918980252	0.570176773253995	0.558686968314543	0.56738463922839	0.562225439099143	0.562070573492452	0.579074255589893	0.565199197400613	0.565198306669903	0.563070371076095	0.576404984393801	0.578657625876608	0.587178074414157	0.594363889840105	0.600006450935115	0.602179214432944	0.612389845050685	0.621719110228248	0.61623488016164	0.633673892111204	0.619944048215745	0.61592626370285	0.598659161195774	0.589865265572765	0.575331302899298	0.568684991193845	0.569657042318972	0.565759034727617	0.557693209558056	0.546375253406444	0.54746531085096	0.535214236415068	0.537423452627353	0.537817769561876	0.552065551395893	0.557061306301716	0.574360666394228
0.416572485545748	0.415423955713336	0.421734642452905	0.42089822696082	0.428626159424632	0.434673633818203	0.44005444221419	0.438523402323968	0.440412276960308	0.436528564214159	0.439883552732768	0.421819808821441	0.438238762998474	0.442159245273984	0.442518940006056	0.434517414214043	0.426523668111887	0.426312677872642	0.427181348440509	0.449609999494159	0.442177636517728	0.450455771874339	0.457343323029114	0.468093497680864	0.469927975697443	0.464193069678875	0.467049868678471	0.464067100071101	0.46652378333744	0.462515832261281	0.453067099897042	0.438631828804738	0.431190630574832	0.429120057003738	0.423218202149505	0.414214287392499	0.408565004234969	0.414156244348808	0.421035364114211	0.426916513211547	0.441204054327888	0.454925226972971	0.447529219846507	0.454595129941549	0.484704014657832	0.498119565403294	0.486520196984062	0.490640020444824	0.502097997826904	0.492473502063424	0.475922511135088	0.476765342932874	0.471548452817639	0.458114862232643	0.456299130552077	0.450767289412554	0.437107042420706	0.433245161179465	0.443679221875068	0.454731344427721	0.448889246458921	0.452216079930023	0.466476998069948	0.466912373765536	0.465321640845046	0.474323412512654	0.469276743242025	0.477406986631375	0.474311498553743	0.483613076301088	0.463927911509955	0.449344768366323	0.45686669994868	0.454112446790243	0.460862119911907	0.461878232260718	0.466933958267916	0.456353744981301	0.465340055738756	0.471553306571849	0.466872909136662	0.470851254203252	0.468310350322475	0.479469847782739	0.478812916881732	0.477314138007541	0.484507203927114	0.481125424887474	0.470470685542515	0.490394265772891	0.487145023617954	0.492986721531955	0.502904101738792	0.502673786133898	0.511269634237013	0.508367221031218	0.520081192110918	0.513831928977814	0.50375728976093	0.491480087912592	0.52397452520314	0.510007038830495	0.510900336274668	0.506396160894399	0.493191589155906	0.499717691239658	0.508043671850625	0.519066505823166	0.514377333968876	0.522885396949284	0.529813995685706	0.545641885518319	0.532869939648635	0.539573684328011	0.538387576613677	0.534546704084422	0.53147612167029	0.539678200929144	0.524564339329496	0.516670262221418	0.505795019324811	0.503851155510901	0.50073354613678	0.494200725696474	0.495936441424386	0.49337861418033	0.497447779592243	0.506013506981175	0.519710523899313	0.513392232629697	0.513038172860507	0.514973722464246	0.548755009989081	0.547892423780424	0.538795349440769	0.550332832301761	0.547517705003269	0.536813865778348	0.525810038832094	0.514423362086877	0.508316133075941	0.498436525139948	0.497650013965423	0.497380359274577	0.479098020274881	0.483983720723013	0.493412243811861	0.490689810636229	0.488411419720339	0.501233565275399	0.500820063033998	0.502788410176312	0.507393088134168	0.510268314868413	0.506771233444599	0.492523296472027	0.506017116642995	0.484093214774397	0.469915904041844	0.45962381143452	0.460671498637653	0.458593468234726	0.453881756978558	0.45881326594097	0.44865616075998	0.455341799937505	0.456612309398633	0.462674165597824	0.466439255233445	0.464268845520706	0.475351467159957	0.47179629292165	0.477129586703232	0.472152397205286	0.484618572758047	0.471822570301528	0.47391321049123	0.475359596440344	0.479282353487526	0.472962354405834	0.470493391579722	0.484094926377946	0.468613168471903	0.469519424660129	0.461965637029403	0.4578824105857	0.439177932944864	0.447787151908524	0.455947844374014	0.443377455544225	0.439143165029957	0.436963720309289	0.429683205305922	0.437311349652127	0.465265173743895	0.460294811429334	0.458751010564109	0.462502078350134	0.482606118101883
0.296679651043327	0.303386436098491	0.310128942073275	0.305167280909544	0.291029026046356	0.283881563051109	0.30061100770062	0.301031112949069	0.299532642710425	0.313790570578201	0.309624596762899	0.313717256585564	0.307412202352778	0.315569064348253	0.316359144951091	0.319572147881456	0.329159919644921	0.333434246847583	0.330676913107053	0.327942368818983	0.342659929379609	0.344457122833809	0.36345048611908	0.380189372894481	0.395905504403394	0.388965043972315	0.39187961646536	0.384980154284697	0.398815186820428	0.409052083532006	0.408675940445042	0.402947013302552	0.405786669165301	0.404828832383262	0.397701141783285	0.39116720216756	0.388458612409319	0.385065219573411	0.389455023623397	0.379177819509298	0.383052477309657	0.367771796754255	0.369903320553504	0.374975937585565	0.387137536589773	0.366684366428751	0.365334817386328	0.361058858897137	0.35234608635773	0.347323481412696	0.359382355354961	0.35357497301571	0.343475186363828	0.357362508104253	0.368379230843203	0.369681168037352	0.355368751658985	0.381731852589746	0.37747790922741	0.38017423171389	0.391680129278149	0.388634487043702	0.37767890753969	0.384029121510582	0.386963350080253	0.381184760811583	0.367669171501317	0.363125245120978	0.367025750604718	0.362525504887059	0.366063179645259	0.376522730939372	0.365374072150337	0.368607565926072	0.362268609194943	0.358108995280825	0.354418377944303	0.349105270986874	0.354898768909427	0.358031225406169	0.380589870505038	0.370798746488236	0.360121632596943	0.347709102259894	0.341885173233803	0.335834370650905	0.328960785133662	0.338849035165789	0.340753763764779	0.364859502192138	0.371009791572785	0.369217291647428	0.349552683187718	0.359295926683366	0.372019735801145	0.365258493303832	0.368135113278653	0.366434461406642	0.376700382740704	0.369587182114797	0.374999549914284	0.380265413602313	0.381969962092537	0.380620442859442	0.382218048760118	0.37924612357114	0.369662111099767	0.38330734150617	0.393832193178832	0.404717728089716	0.421390238194896	0.441547743180607	0.456659237868288	0.443403290870475	0.438930346555583	0.443635855765171	0.455501199363513	0.459866323725731	0.463074007422115	0.452715724275719	0.461350363651133	0.452094075606518	0.445228147791039	0.435443190322292	0.42290888966928	0.42258616259356	0.425658044094119	0.419860698262038	0.412181662898238	0.410455262750283	0.412835774498673	0.416986661840007	0.401655547387961	0.399088228107035	0.399041247610648	0.388148234120442	0.371979720146877	0.388428171542266	0.383824630823311	0.381149722627335	0.373331608971389	0.391992125371797	0.386274187367395	0.388044886101182	0.391591732559519	0.413062737847531	0.40186784293171	0.412965629076514	0.416958874252717	0.411530540898987	0.417569610132826	0.412112335623145	0.408566094548725	0.39099514307058	0.381945098427389	0.382947199863224	0.386904454081218	0.372118705879592	0.375071139497086	0.377272961388246	0.371456227415066	0.365704829103064	0.356398379322962	0.349769433568153	0.352837066285308	0.348416822169061	0.352536452426891	0.36455256805919	0.365502797598263	0.353422191988292	0.34984601083074	0.339709942175553	0.336982107170199	0.330799400798197	0.334876299218775	0.34281963967848	0.349504071441765	0.357927187772863	0.364944898561137	0.34598376377261	0.337329410708387	0.352050064313226	0.350195358920266	0.332909021068941	0.34482670067068	0.337716221655692	0.342205872845008	0.33143384569238	0.331037542943691	0.334203071603745	0.336377389315633	0.340588162637144	0.333712805386445	0.328476101097277	0.334228867961968	0.349915198660066	0.351985449913606	0.375803344044543	0.382533787629417
0.229355791607632	0.221975706462757	0.230385831495065	0.236468832056922	0.242067307192135	0.245457985850908	0.24770119732147	0.261880201884406	0.270410071869851	0.272559289296166	0.269997294822057	0.278997173738292	0.287910215386293	0.286533120478982	0.294224705741432	0.280017353359114	0.28481570419096	0.267773492580173	0.269647001071433	0.268490486122266	0.262518455766587	0.264944922289779	0.265205961904853	0.269350897745063	0.268469987748694	0.272890623415071	0.266319605647001	0.270478731723005	0.274655270806322	0.280465577839747	0.284462554252883	0.28049414086425	0.281616231604786	0.295884067851921	0.304317844020728	0.298535403469515	0.287780228921293	0.284562713847029	0.281991334219059	0.285246634525882	0.273487591353233	0.27400533264776	0.277986960048146	0.290960465268515	0.290897183375342	0.295334990960697	0.288448706895922	0.273178740243631	0.2908246370854	0.298774895202493	0.301796006450399	0.308543017337928	0.314329403200908	0.312178044093702	0.304716612152164	0.290083972481541	0.275599967597975	0.271281221151879	0.270196367308616	0.279036325075303	0.270513126178235	0.264745339324734	0.256605252018974	0.254260594091888	0.259542711180386	0.26928236805742	0.265993389362033	0.274867253573291	0.29156815055596	0.295529845952047	0.305691973823472	0.298601327471262	0.303658198308085	0.299948218347358	0.309339193651247	0.301116845354631	0.294442773131105	0.286440769058651	0.288011793085744	0.283850856864478	0.280150150964666	0.293473997585643	0.285492153525188	0.280176572812439	0.273568064545564	0.272989156757705	0.272135348956266	0.272410235873906	0.278356663556164	0.280211531871603	0.296384326882027	0.290314877065892	0.298467440438413	0.304965439067509	0.303546054948136	0.315045609840433	0.320434341517464	0.326946671535715	0.319894131270727	0.327584924399287	0.329824593093816	0.324261797836592	0.319918105209165	0.326088423989918	0.319041303041925	0.301610320296092	0.304073952839004	0.299700270360687	0.301701268164132	0.299686486241447	0.313885824229122	0.317840155444335	0.32392986568442	0.325389590144485	0.32099246474276	0.324440675093471	0.326241867717594	0.330922960806852	0.331364518592314	0.328290244359249	0.330253965253921	0.344918024954764	0.344918129746949	0.328132476387622	0.322120900855567	0.314945538732084	0.31020347293536	0.31162159545694	0.303863537606561	0.310217896155651	0.306927679617681	0.321212263773502	0.321871871208771	0.32139723808571	0.309664224595123	0.313603129341125	0.327967536392324	0.334581518225572	0.341989118584079	0.345576714185607	0.345872479279744	0.335764351465882	0.327615011681683	0.312924140872391	0.300729956827622	0.290299209096091	0.30125801577471	0.297558781055968	0.297210415717022	0.286047581111913	0.281485244788196	0.280898894557313	0.285649943739475	0.289394844273586	0.296835668089565	0.29871372557156	0.306202072312966	0.316226073068378	0.311957616843546	0.308519817759484	0.301817646489154	0.305502378555726	0.304101857612183	0.287840763852849	0.289613603524613	0.281628562769523	0.280990080950418	0.278528598705996	0.282093217848318	0.286173085836908	0.277560326096814	0.280959203307244	0.274473287832519	0.273572731086153	0.267875252326127	0.275598653296078	0.274390198877102	0.276157792877876	0.281587878190499	0.276013901532568	0.287840159792363	0.275648797587886	0.283621098441391	0.290988476609856	0.290370952950056	0.286821782143409	0.290309738625972	0.295671328198544	0.287408128964896	0.292533104017641	0.285349722186184	0.291861127206841	0.269911695762442	0.272259536106481	0.265365271134563	0.259735642583538	0.265838805956656	0.269973508013264	0.284132727803914
0.184446483292165	0.178773411348298	0.179761839912353	0.186242987484314	0.180654720131173	0.186644486020618	0.191923608968499	0.198261800514234	0.189552192044908	0.20220997690758	0.198231724121088	0.205527477923282	0.209542712067443	0.208460058147612	0.204105226074024	0.19946734107527	0.210874949354828	0.203571433390324	0.202171123258455	0.197007673349125	0.199111139279526	0.191063315141415	0.200069771936976	0.200005664036749	0.193665897242106	0.191064831183659	0.193551563868711	0.196123584817629	0.19148935483881	0.192746793629092	0.196815506229231	0.200158498481613	0.193293767633113	0.19689168174899	0.193014914595826	0.188145660326102	0.190567025533283	0.189950347174956	0.200520782600661	0.204581649213934	0.199133563698226	0.211619288415386	0.209294904883996	0.202140845249527	0.198466925464594	0.202405016293578	0.202549410937014	0.203193426442564	0.205058363718703	0.205407808727322	0.196278940797049	0.196026784660494	0.196007953255511	0.188799829480941	0.183698165657771	0.194297609678781	0.199550719013025	0.199901732139848	0.211384871105512	0.225443196063526	0.234856508166531	0.233543949652104	0.241347385102665	0.24047323561747	0.241015859967656	0.23833972185034	0.243599823071549	0.232761442059751	0.223730928504871	0.22370140211799	0.222295303282232	0.216705653980102	0.212740626845131	0.21235999877057	0.210360083276614	0.202367055728202	0.207453378075674	0.208608745731874	0.209998148032817	0.213805696404417	0.222082150195009	0.22297819546214	0.213952958424204	0.215793550043025	0.215541940650277	0.21181109289647	0.214312911501421	0.220932955425797	0.219597776079075	0.220938031841759	0.222545642086904	0.228248501117155	0.230017919460556	0.232405732166788	0.242139070209698	0.244168872595585	0.242129965087764	0.251971121819505	0.244378771220078	0.251114492884028	0.253361476874683	0.249573557102748	0.246935755342629	0.250137480316667	0.249054346573223	0.245720448257743	0.239967187295911	0.237304319532137	0.232669258234034	0.230674807594083	0.238429944499684	0.233216561188052	0.228878521657036	0.228677781448375	0.234360660540269	0.233377617000372	0.223143016206587	0.220111188042954	0.227989521333888	0.226488700802702	0.223306040575683	0.225600755763566	0.219764699675216	0.222835437895267	0.2215461211494	0.221385465350816	0.224814639180733	0.226086265155209	0.226316227548283	0.240202406488519	0.233023193338964	0.226308424575393	0.230888997386327	0.233200613639102	0.228192466790474	0.224586432142635	0.227847614314993	0.225902935199524	0.215270806709784	0.215052480061414	0.218648200128508	0.210489133854114	0.209309911412933	0.22316906605082	0.220364259863011	0.224360202080361	0.240072181698092	0.245713817313134	0.24291770952614	0.248184116613203	0.257662947907134	0.253746977865072	0.251317518742376	0.247802809020506	0.249279318946539	0.231647175125455	0.229121926168471	0.228769500993773	0.21516374030118	0.217960359187603	0.218823392618096	0.210665150757166	0.203706698211293	0.200120020582491	0.205333569123425	0.209634213825009	0.204337953708062	0.220516449665665	0.21661578261217	0.209228202801854	0.208522769552724	0.212708008988822	0.208597610145705	0.211004283612334	0.210000078745854	0.218250609454677	0.216348068836567	0.216738288263751	0.223537391256081	0.211724815724048	0.218582717656887	0.219663773226661	0.225807490493678	0.214829121465772	0.223047381070908	0.224673320375657	0.223828513628197	0.22220489034312	0.221289770677564	0.215768924090742	0.212948118591206	0.225889511000476	0.218346072085611	0.217559387255675	0.214653049176438	0.218067135713021	0.205335386820487	0.20511576264955	0.208880368231762
0.169525764034813	0.168102736983989	0.168621522272292	0.171906491206057	0.181204063092479	0.188600540456504	0.187092290867719	0.19688079648557	0.196065349096235	0.19346306991871	0.202229091703851	0.207273849695361	0.211326953507352	0.208099533557981	0.197860231145789	0.18998002538039	0.190265841973913	0.181135844098445	0.183656958942333	0.175918701869574	0.172849336552608	0.179260235684625	0.172122036270267	0.172586927903843	0.161712256858482	0.166027400059032	0.167067499744699	0.170323857093165	0.168968881802462	0.171784320968751	0.175629954990027	0.185593934638052	0.188101982865793	0.177760610982292	0.180537327275645	0.177319303452422	0.179013492427476	0.183011113281975	0.179097825240236	0.173450844543801	0.176119069563504	0.1762519353368	0.172613333941658	0.166046883842001	0.162716482761829	0.1562671139384	0.150076202911008	0.150433178471252	0.16144609654066	0.165839982231112	0.169401333537979	0.17411384251635	0.17631873759375	0.17293320674298	0.172754357902916	0.173454931411048	0.167760480345086	0.164821169663388	0.168470690953512	0.171897333655532	0.162464896023065	0.160795162976961	0.157630185659593	0.149755491846634	0.142121910387473	0.150452988427982	0.152167376178312	0.152019336265308	0.156566366623669	0.170130399516728	0.173736972206231	0.171510569550876	0.168566601723137	0.163917128035215	0.165844036373762	0.168643944854076	0.179839129980459	0.182215444610442	0.18713792718154	0.191441552873978	0.182122414478932	0.178702530082324	0.17829828111325	0.185093890599236	0.18830568208611	0.189835989628775	0.191398446051697	0.194666151900425	0.194224330603801	0.197300642382154	0.201812888146142	0.209556538861981	0.219648320691566	0.220768487310076	0.225097475641244	0.226081683269501	0.222371939263142	0.230933448773494	0.236072849270537	0.248688981211468	0.237863927958887	0.233999677527269	0.219496814852125	0.205310445510847	0.200691419967153	0.197374633719428	0.196120899915387	0.187404523869485	0.195925500633514	0.198916463307296	0.193742635840376	0.183398442094099	0.181679999420653	0.184329919294839	0.188182252504971	0.194747104183894	0.186989838139247	0.201546469248512	0.209176770367673	0.214172617037806	0.207654957276704	0.203246143036754	0.206171306178948	0.194492667523921	0.200271581351547	0.202734047642174	0.201905889930623	0.193733542616518	0.199338701558746	0.18629559125908	0.190079447303237	0.183969870570556	0.181301900615404	0.173482897835676	0.16446536343498	0.181605224197219	0.179108422389335	0.181723311779632	0.180888947300188	0.187551408709892	0.187223284051825	0.190379120561102	0.180335063747742	0.183007744547557	0.176769199171183	0.175777477170001	0.184457826108638	0.174963604518303	0.177652526948348	0.17072425355485	0.168724877751951	0.160561048967721	0.155544841262604	0.164638734913355	0.166634075980647	0.163621758868211	0.170080553815914	0.178951874370545	0.17398195069447	0.170123152955319	0.162372538638604	0.166557418268319	0.16386626694685	0.169586179311507	0.182650772460128	0.17638346763492	0.183677221517405	0.185892049739306	0.180494180635974	0.177169832177816	0.181237837622482	0.18231590969269	0.18961746320737	0.186396329576967	0.191655205186311	0.192944683091731	0.187823798988263	0.196622242872515	0.203311767848085	0.201016237836766	0.210258567383627	0.208986910475559	0.206642579232364	0.213401829853932	0.207823232398296	0.218578081848464	0.218450693506214	0.221170907264371	0.210597854149886	0.1975053485142	0.182084741188629	0.181058970488022	0.174117806779062	0.176565003460322	0.172194473810462	0.163056205803024	0.16757217934162	0.163960227126037	0.162607368188156
0.0927350420824841	0.0881199867362623	0.0892501814008681	0.0888339362860238	0.0925342890198198	0.0996865420764	0.108123252838926	0.112083016132789	0.116067348368282	0.12470436332476	0.128318713039253	0.13194064974054	0.139453546652779	0.135227364500876	0.134477061338586	0.129101551680452	0.127468097606747	0.119218097125146	0.116446502186898	0.121244291488351	0.113239185665062	0.113255191510008	0.114219713735918	0.118549706779501	0.10878402062495	0.117818828547966	0.119326779158991	0.124549800632646	0.123044029259441	0.12957897470828	0.132270738415969	0.126612802280249	0.127320445401495	0.119748397680506	0.119027246557919	0.119753784252358	0.124466049248875	0.126671817501555	0.130058592785651	0.127388614915607	0.129964805067522	0.130212325681765	0.133603418341961	0.129391309702718	0.126519245158449	0.127934678989684	0.130523396190911	0.129989929142059	0.12979874451868	0.128922670970554	0.13107839068053	0.130673139343672	0.129271724440264	0.123646192174989	0.12615528725377	0.124652979410874	0.124389544727734	0.126866263008669	0.121487430386739	0.12228974117139	0.125440135061887	0.131031213079335	0.126164266383443	0.132728831934675	0.136936797534983	0.135354480285771	0.13642542628203	0.136414907526214	0.135722985369569	0.138163309056757	0.135385681898451	0.134631628546916	0.135138974168489	0.122492485920433	0.12624520958435	0.117360190063053	0.11482964225162	0.116463576806371	0.116620323078133	0.12001727347441	0.126554939999042	0.125404393921018	0.125439622489983	0.129686108636421	0.126124502403845	0.124917188944267	0.116492314819788	0.117717471290824	0.114529292147677	0.118213283675453	0.116948912295187	0.115666951719228	0.122446433064658	0.12873205219994	0.134895480676244	0.14280537807371	0.144541392234071	0.154950995994287	0.153617263656616	0.162648867542304	0.163764002026015	0.158852067870887	0.15891235744749	0.159321450533637	0.149419000415263	0.13821499823534	0.138676949887829	0.136617093740843	0.134652509099833	0.13381808954524	0.137050216086231	0.13347457790501	0.133126493549981	0.142629904055967	0.144683410065831	0.143525356715734	0.146626604938369	0.15279455616121	0.147348832683302	0.14098230912958	0.142948141849238	0.135683426582168	0.135048764964311	0.138367960031629	0.137199023810643	0.138446856464552	0.136899951680141	0.138691398891352	0.139719659201648	0.138920741510728	0.140772406712958	0.143737902606009	0.13794261850143	0.13885909965873	0.146031496986631	0.142803866577147	0.148484784744128	0.143185805152076	0.146948687440655	0.146202974223684	0.144456854816067	0.142009954964505	0.138360520206216	0.135077554129109	0.137852580630914	0.132894593012434	0.131233880412465	0.133956291600013	0.130529522600084	0.136577241296892	0.13735411197352	0.142264641157902	0.142266799316291	0.141853886792041	0.145103797014774	0.141924670386538	0.142234829160279	0.14259059079554	0.137798571178017	0.135836106134194	0.135414743429783	0.123304851338236	0.120239856465719	0.112585898176296	0.114358689979592	0.113371766295049	0.117063419466348	0.121372221594764	0.123468648122451	0.121687371198659	0.124623337793169	0.125713711751112	0.12504564266941	0.1224923832614	0.117515345867786	0.115254598610477	0.111471486446518	0.114247483142001	0.10994306219515	0.114360610314673	0.114388077031143	0.126921391170002	0.127556053869518	0.132104031303564	0.140777445143006	0.144399451313746	0.142162298315463	0.150779171280391	0.148892240588187	0.144237953867589	0.143129467330607	0.138875315714133	0.131501533897987	0.119833970007454	0.125496970170689	0.119426362201249	0.114571891454415	0.117591432837643	0.123126486468776
0.0768604319942919	0.0860119850262137	0.0846576752808134	0.0886348890081541	0.0901356125894864	0.0918842050965844	0.0892626016704273	0.095873877000187	0.0959305409071718	0.0953222212050028	0.0998108941146296	0.102575643069109	0.0975389175140711	0.0901082905970757	0.0989831923771718	0.0959531344832001	0.0972450576757649	0.101402338108514	0.0991231259955803	0.100227002711536	0.0983813114688396	0.10144013919057	0.0970621027993607	0.0984862592257224	0.105689717415341	0.110146932427803	0.10842296789822	0.108479984438152	0.1039592199734	0.0940115990134351	0.0978162980501185	0.101575515230969	0.101790263631474	0.10155306457495	0.103641806095889	0.104063749801721	0.0980962590408117	0.0954621808173929	0.0934541023535743	0.0965014266807293	0.0986724048471083	0.104748036329257	0.107879739067877	0.10178893554733	0.10443275181778	0.103880119939015	0.100393695770433	0.0983738939629202	0.100322063383155	0.0963770365099482	0.105719653456537	0.103199484774868	0.0983489559305285	0.101190828619206	0.0966528944128828	0.0999081942174425	0.0923471921335179	0.0904287761445496	0.0941355371322154	0.0985332526160755	0.103951533272825	0.101638109468568	0.101411711316308	0.104167325834365	0.10401194225804	0.101928803549152	0.101109763469666	0.102478045207313	0.102727412387606	0.107727658538505	0.105418439105994	0.108242608070467	0.107262191217291	0.106741787892827	0.111410064810382	0.111356729625722	0.104368548310658	0.104003663457206	0.101259730886274	0.0996337850236659	0.100245754862863	0.0978815315227437	0.0985767857418863	0.0946866882285759	0.0963092684607242	0.092491984127057	0.0879871275724655	0.0880954493425296	0.0923673328462976	0.0993859878089624	0.100721169854373	0.106029475633432	0.108501541044226	0.110334293505536	0.109908904933994	0.110416654147921	0.108289175818574	0.113295775577815	0.115456704390662	0.113750384552348	0.10838180167745	0.106497438874451	0.107470774233782	0.109338254425975	0.113868378006851	0.111501991208816	0.112972515478021	0.119292637241809	0.115692261066689	0.112184090353838	0.111737504836257	0.115700873716126	0.123529620234444	0.12324429518823	0.120728697503756	0.12061055452286	0.11330916441715	0.109044521503611	0.111201736354784	0.110286610344898	0.109909774815861	0.115991632846659	0.117075410829531	0.115620558666493	0.11020780018402	0.106831397443844	0.10652311543827	0.109153778094088	0.11559363140126	0.114656928971746	0.121381384775198	0.114769786572136	0.119997817352591	0.112061219032887	0.111234610756362	0.110421507523979	0.112822436083022	0.116097476358556	0.120481260176892	0.115379694467075	0.112999616313906	0.11366253256971	0.109136485121019	0.113192115051726	0.106555231454128	0.110667011577146	0.108239086065069	0.113619443393293	0.113414950960559	0.109349155121538	0.110982542122723	0.114818151365256	0.112539549424261	0.114972716008985	0.113363542697018	0.109552364574456	0.117135009852956	0.11266852580391	0.112368820347993	0.111272192408563	0.110903122473497	0.11608226376461	0.113251707774084	0.103863484008956	0.103236463649492	0.0987211354677746	0.100142642104539	0.101650338809262	0.0957060511975118	0.0998290768555669	0.0952227583165652	0.0919980594044319	0.0903058420411424	0.0865378566543276	0.0866303985807426	0.0906633934878604	0.100584463068335	0.0965384757618146	0.100552941288227	0.102775606768765	0.104271331135827	0.101393138813486	0.104932284409604	0.106415133597341	0.10600848059342	0.108037230280625	0.104109416805527	0.102002711104032	0.0944152197434211	0.099447513481574	0.0986571789440785	0.100440630847275	0.107067669602304	0.104942324757315	0.106496830621983	0.10425085826634	0.103780297127851	0.102467739655003	0.10715844690896
0.0768383032491746	0.0793226523214344	0.0792903675390501	0.077827127980379	0.0831965197803556	0.0792067879714338	0.08034068432824	0.077584971436285	0.0738719555404502	0.0706149039445262	0.0732075713146619	0.0726918410292057	0.0700920179674219	0.0732158374549661	0.0675730290414737	0.070153521836295	0.0696206068793848	0.0741296997226168	0.0712252861510353	0.0771101318009043	0.0768672451607279	0.0783746217920144	0.0724821678113298	0.0822007011956916	0.0818652848298306	0.0792142842262459	0.0802579536273891	0.0814501882879807	0.0809322937549441	0.0791967226984302	0.0834565059200818	0.0798477984857167	0.0845326971801702	0.0870172087453049	0.0888245890110606	0.084251327439001	0.080829241960226	0.0864093245446431	0.0926753509262369	0.0956734601661985	0.0942589619000295	0.0923663558301741	0.0892323306953233	0.0918590330142405	0.0873974141486306	0.0833533300384718	0.0839789595562768	0.0847111737599763	0.0858072582275073	0.0797457735029067	0.0813617960482327	0.0765256793075083	0.0751184860670167	0.0764180403010526	0.0812856251575271	0.0853009347153424	0.0877230408818418	0.0890574358370261	0.0839613756219629	0.0807975188650865	0.084122023598394	0.0852363577727397	0.0850001224267205	0.0866206660737859	0.0896384628267424	0.0900223997123906	0.0844477992689277	0.07989598603807	0.0824460138785473	0.0792166368973182	0.0786125813461869	0.086301980324276	0.0870697745392929	0.0908438682039461	0.0893777006650695	0.0847269506318829	0.0839311986629019	0.0817731473238918	0.082516654610964	0.0855410341285917	0.0827643855751261	0.0881922734105054	0.088485596492628	0.0895085050843468	0.091839145696222	0.0891948760958376	0.0866461461304382	0.0910715095244643	0.0899883149770739	0.0947178308032614	0.0923789543942137	0.0956129730222326	0.09411145556111	0.097591124085038	0.0952049488851911	0.0903283353348377	0.0888926649168595	0.085905265294023	0.092688724381253	0.0868593126409492	0.0838931514255325	0.0839871088450874	0.0829639778940109	0.0819337947194723	0.0828124119479516	0.0811645986763016	0.0836697880785644	0.0866737917988543	0.0880825673234313	0.0858684535468304	0.0829639935408925	0.0880634243996989	0.0893650176810343	0.0852890671380871	0.0891084239407657	0.0907179749882704	0.0901351399991201	0.0916942951076401	0.0924645536440811	0.0925236655460485	0.097283032752676	0.0987452546022789	0.0964429231204303	0.09507857460367	0.104575782146447	0.104969523787447	0.110204961984355	0.11040778780885	0.108999996297606	0.107105068549122	0.103256115355748	0.101803437355492	0.0969714842119637	0.0941380639757254	0.0986845675623851	0.0969196995853166	0.0875529738360383	0.0870930189970903	0.0865323900760675	0.0820360727321778	0.0830877254385381	0.08586192790762	0.0916400100678634	0.095831787456858	0.0990160637102295	0.0977482083900914	0.0948741332454326	0.0977472860152043	0.0973949329948346	0.0960705516473965	0.0965954253079746	0.0990178507485569	0.0996713416557994	0.100848885357029	0.092413421461399	0.0871738694247285	0.0867729322264451	0.0833999485716427	0.0853549543114985	0.0866966625206931	0.0924372327251607	0.0892754704758403	0.0878650770514129	0.0842559796142971	0.0806110715783321	0.0817087912392371	0.0826250947583643	0.0824145700216367	0.0847791554308259	0.0875652217586721	0.0866078248289179	0.0896968382514372	0.0900128746712469	0.0904720119853937	0.087844661202928	0.0892169938551417	0.0916465921241928	0.092286927754467	0.0880890159424735	0.0945914813550694	0.0893627880029201	0.0929319408535868	0.0882412322902397	0.0845776955767389	0.0816555303795017	0.0842353908792536	0.0822194409176694	0.0790999676498854	0.0793438807169587	0.0740333023801554	0.0774530173000835	0.0736774549480686	0.0758951402458089	0.0723180103869197	0.0785906634260029	0.0752671297801195	0.0753263892718674	0.071733335713241	0.0742835916355888
0.0402617423120171	0.037525423431757	0.039145800406524	0.0348790240523136	0.0388492839845333	0.0388175972769745	0.0401744161653729	0.0415926849285242	0.0450544957265363	0.0476412988931018	0.0482787034053954	0.0532628211279726	0.0587145431074209	0.0656018662135943	0.0661476573912977	0.0686514179240017	0.0693027119754177	0.0724955018890697	0.069995923696391	0.0694673099896699	0.0685937456319459	0.0693132007649329	0.0715769436138437	0.0734754049549431	0.0752625878567911	0.0702395783109524	0.0689404236806906	0.0691018436741897	0.068934253975424	0.0700903439057034	0.0672679023193596	0.0655091851418381	0.0703805478796777	0.0722496355770541	0.071592105554423	0.069025586518658	0.063570106729022	0.0633451524652926	0.0650779638867911	0.0606662738323341	0.0593154680460811	0.0596060445713143	0.0611848053022882	0.0651892248620639	0.0676186200711928	0.0697260195767321	0.0696246285646315	0.0682819021481296	0.0708489482468131	0.0731925622311544	0.067508512383111	0.0692172203091891	0.0710677015726065	0.0703207372588146	0.0723706430183843	0.0709257934043697	0.0700347877227733	0.0643963226227432	0.0608112858383907	0.0645841074260658	0.0643504413744006	0.0602797265594628	0.0615185694885665	0.0625932683947874	0.0620472888697377	0.0650096244161902	0.0652789784998519	0.0655527660279418	0.0740943092398467	0.0721346786543214	0.0747455361021327	0.0765890976452394	0.0800851171120165	0.0789949036372761	0.0804746529812549	0.0808404307976005	0.0783700896260781	0.0781083590913987	0.0782158658073046	0.0746602836644815	0.061628950422617	0.0649077979517647	0.0626542304928514	0.0583804746944522	0.0543475314928876	0.054821259959927	0.0513564277165044	0.0498401244927318	0.0495913337114897	0.0449371467245224	0.0447730387771619	0.0449577599274682	0.0478210951823551	0.0476696913176442	0.0475584567959554	0.0507776088406863	0.0525402094509685	0.0533757358958847	0.0542719644536001	0.0597039855844083	0.0680389101644718	0.0729680357540183	0.0721242422892931	0.0754329918033164	0.0748261332120238	0.0776628307712518	0.079250015109778	0.0759578050621245	0.0770827488049848	0.0779818848243481	0.0836805444382131	0.0809632518193387	0.080333843691013	0.0773800608479688	0.0784259584687988	0.0733765126141027	0.078417072419591	0.0737042811314897	0.0720340837327194	0.0764941456510084	0.080427785859497	0.0802249860973206	0.0780279725213604	0.0733286193216715	0.0703354972165718	0.0692859877873754	0.0693157667089203	0.0684838132367402	0.0651217826241264	0.068811833505641	0.0687182643801176	0.0665104738385556	0.0715820047873596	0.0717302416950024	0.0693884474298652	0.0709092630137577	0.0727571293014477	0.0734086051755961	0.0686991331454394	0.0716461268317847	0.0745805639717518	0.0714619340271026	0.0748270276304923	0.0749437687412205	0.0692917803035887	0.0630783537216319	0.0656033278450999	0.0664061693582001	0.0693179061548522	0.0675397733324317	0.0681875726560623	0.06634535922836	0.0688895226737529	0.0704446704850086	0.0654092758941574	0.073373034741998	0.0755520073883383	0.0792003310468198	0.0794333706822274	0.0837763007208868	0.081412927879669	0.0775583702087891	0.0801226325723093	0.0794514183760806	0.0778803021183595	0.0752460535117369	0.0801040734849518	0.0677211469281001	0.0615623731292907	0.0628652026126643	0.0605376136839825	0.0528804386178662	0.0535406752291317	0.0537842035739391	0.050618262650211	0.0497317904155321	0.0459265054646225	0.0453188883432471	0.0423792853851757	0.0440197631361625	0.0451255055317527	0.0472442540935534	0.0478556665929489	0.0503082942478464	0.0511683044795943	0.0499140677842372	0.0561527495098303	0.0581063710232364	0.0646448273340686	0.0644922057210315	0.0654060669021103	0.0659551327726608	0.0686395104509906	0.0659168708235929	0.0659775413659042	0.0632062397585608	0.0662381614136644	0.067647284013296	0.0637929991619369
0.0378020782821733	0.0369593836560491	0.0365417107720671	0.0398305522757585	0.0445463927370715	0.0444285073959119	0.0443410569605311	0.04769911474394	0.0444818242919806	0.0477122334777542	0.0510407720133666	0.0477408091029386	0.0477076482908966	0.0471474087631249	0.0452335236217424	0.0441132207376925	0.0412912852465987	0.0452010844878366	0.0463616126118777	0.0442407036964724	0.0440603663520291	0.0470007622214705	0.0462557067536392	0.0477689285638896	0.0459024110286295	0.0473536183953426	0.0504006845443784	0.0510573311580923	0.0514674122111222	0.0481456109768972	0.0455051231861558	0.0465847606546277	0.0479343214650781	0.0456970667065319	0.0444678719264523	0.0428045590613566	0.0443072694588345	0.0415645962407445	0.0409528627564463	0.0412434235237209	0.0388491673598161	0.0420979194361109	0.043909579147638	0.0430966502162887	0.042373593420064	0.0449959649919771	0.0483919368178065	0.0479464194054199	0.0496769250636718	0.0529636979890936	0.0545397831405996	0.0534635760210502	0.0555125812373229	0.0538886663315017	0.0520002197563277	0.0538509488965029	0.052286254497293	0.0522430649617333	0.0463675990056275	0.0490031729754316	0.0471044054288997	0.0466025308903541	0.0491938619110838	0.0500366780911274	0.0519206573933419	0.0532562484954287	0.0526569344083123	0.0518629021546776	0.0560489608177056	0.058603611195808	0.0571528023536702	0.0576533298329244	0.0582060464915715	0.0598503698723248	0.0559466631414761	0.0539787731315527	0.049979183966006	0.0526985530855052	0.0511683567109781	0.0507261384220617	0.0470265554593122	0.0455861866588626	0.0445206638955784	0.0465075713476138	0.0454272965229785	0.0432079176257058	0.0461985247404972	0.045117393347836	0.0461196813173151	0.0432513876395618	0.0451089546463678	0.0505234994473152	0.0485895944956614	0.0488317403292803	0.0492923996225198	0.0506516279546317	0.050039412936644	0.0515947356609932	0.0543749308654325	0.05149185041942	0.0536898730673643	0.0517076403850472	0.0485524995456374	0.0449297703633553	0.0487567046882818	0.0493380205654442	0.0527766660039177	0.0512275283397084	0.0503407062948867	0.0529999339711356	0.0541438239555092	0.052030492716449	0.0548286760670193	0.0533570568637256	0.0555919155836756	0.0582511513625017	0.055801223591408	0.0537369944689111	0.0519464240031949	0.0529950812390669	0.0520249904818971	0.0505635380537807	0.0493484065630478	0.050877423520245	0.0478982682908139	0.0478654832312407	0.0460891612096154	0.0452296348167399	0.0462307122515522	0.0506181280149524	0.0508079997116775	0.0470279561251727	0.048146705484999	0.054896555267568	0.0507208366569226	0.0517120892558105	0.0531244741877937	0.0571561665099628	0.0588317438026481	0.0604879775676108	0.0577667734143624	0.0560704047415314	0.0566105606327884	0.057550519465719	0.0547912138971528	0.0485222452302237	0.0525977437143216	0.0527928498559855	0.0531903511671576	0.053095912568517	0.0548875088969634	0.054992347002517	0.0593386193281896	0.0580180152627768	0.0556167343422377	0.0587080128394512	0.0633492034709158	0.0619664721363587	0.0615933758500501	0.0595405388842626	0.0613952798197779	0.0578582297943221	0.0569752805549509	0.0514467760504674	0.0498895216965009	0.0495329078193545	0.0497040846942778	0.0476596221242277	0.0438206851270541	0.0470273986896607	0.0458536869706153	0.0469389122408821	0.0424692603475631	0.0418583225186208	0.044454637543133	0.0461474730330667	0.0443224904726198	0.0440802492592047	0.045848489235771	0.0481292383160863	0.0471498097866274	0.0440814660395406	0.0482463800867054	0.045334446094565	0.0464971225967283	0.0504265619151862	0.046224923012738	0.0464703222865613	0.0455253136956798	0.0426291406199746	0.040675086263377	0.0399903876271371	0.0443335713808883	0.0475497717089937	0.045304222440916	0.04506081861546	0.0466092678909184	0.0439526105789651	0.045865421395219
0.0276839372412239	0.0285876152803444	0.0278583180617241	0.0296846365807942	0.0292266892034867	0.0311673948299474	0.0307714449910435	0.0319224891097568	0.0322010916101842	0.0297747408306142	0.0256551683016832	0.024923903183983	0.0264173337821532	0.0249430387775299	0.0260076331676408	0.0286426801889105	0.0278452976475389	0.0307801284944704	0.0347705113828568	0.032971600375887	0.0315513516233773	0.030999641130311	0.0339427486263602	0.0374812258848817	0.0364821879220324	0.0372934610305016	0.0365273148744144	0.035834596422984	0.0341888400433081	0.038088788683149	0.0370462888797529	0.0384012195758115	0.0421570247866239	0.0426080814711333	0.0396649739750841	0.0403081575575722	0.0382310049260866	0.0355699348331283	0.0375376420635511	0.0370242107270031	0.036026483007703	0.0312302351095177	0.0303703639045033	0.0289908389076819	0.0257977599629604	0.0242528463299743	0.0243259990519636	0.0269778447227794	0.0304570788861579	0.0336951529335492	0.0323827520052107	0.0325063910754488	0.0339905581864333	0.0357807569213124	0.0336751726083984	0.0334502652852895	0.0327191064866782	0.0324747321442806	0.0357307523200837	0.0353052389586773	0.0322782801313034	0.035007926734005	0.0331240187518824	0.0350127835229772	0.0327948489867547	0.0333372694096911	0.0316419747488442	0.0306501534899458	0.0311778541603939	0.0315671574284456	0.029407589954911	0.0287933508240957	0.028336032331515	0.0230162690743523	0.0230192476016477	0.0220102360510914	0.0238119659699375	0.0223130982846697	0.0255324834144066	0.0284251580318824	0.0285495339852942	0.0281347746699682	0.0297846562410054	0.0307723769290489	0.0291822285663812	0.0340566319176807	0.0355195826378991	0.03418872847165	0.034847567404455	0.0338805528364497	0.0325035289120569	0.0352148464356638	0.0325179446726873	0.0350359039899397	0.0346748392743057	0.0374523923866051	0.0363240797333108	0.0329330150858586	0.0308493773477083	0.0314491304394744	0.0301206166775392	0.0294958712383587	0.0307494011232665	0.0326593900486666	0.0351455441968826	0.0380252443600019	0.0382364016629308	0.0365732276040124	0.0343843292248079	0.0347428793096736	0.0391037602343727	0.0401098895713014	0.0418493909377375	0.0416899045608943	0.0423697965347377	0.0406685974813693	0.0411318124378702	0.0414646296045739	0.043499444505236	0.0466066952902217	0.0480202842345137	0.0480719811655845	0.0446462816511135	0.0447994871152934	0.0426334008691438	0.0426472590489109	0.0446234130807009	0.0419983142209838	0.038465346743512	0.03705372037971	0.0341156521202919	0.0339150750708191	0.0326342875494298	0.0330894322141327	0.0340130069490544	0.0365737598960726	0.0395724255065435	0.0405803308295962	0.0382508890597846	0.0413777988686974	0.0420435683551479	0.0403114482021314	0.0407142355248708	0.0385995748303698	0.0379539825817359	0.0379404515069747	0.0383228141435631	0.0371768802882754	0.034304415821897	0.0351142218900668	0.0375632341193514	0.0343338379555912	0.034911878413012	0.0333372694096911	0.0306501534899458	0.0311778541603939	0.0294890613835373	0.0292981573026795	0.027076434698153	0.02762835641116	0.0260378276351885	0.0236369560922843	0.0209493947935204	0.0226109009071546	0.0235018915459235	0.0235247759116107	0.0248012182967064	0.0277157825127465	0.0278418580649391	0.0268271160655427	0.0303569251818299	0.0288186835638378	0.0319136860626083	0.0355195826378991	0.0342729112804464	0.0332086538110472	0.0341294375458292	0.0334001403272089	0.0328678432724007	0.0319034632962828	0.0325179446726873	0.0337531508195468	0.0303153683430063	0.0331118672436589	0.0320224456560963	0.0271951972068102	0.02646393208911	0.0266884354264537	0.024572763836634	0.0256373582267448	0.0282724052480145	0.0291332998537619	0.0301973255162622	0.0294486862626056	0.031881566170061	0.0286153617691422	0.0284329639324559	0.0327465031535631	0.0355450879086279
0.0236439594582929	0.0255962189739629	0.0265391698997791	0.0253158017098883	0.0251990610788362	0.0243735457738881	0.0253558337082108	0.0257473753665439	0.0281306285795843	0.0262709480915217	0.0259421224233018	0.027249358343092	0.0240298039200359	0.0256354783436549	0.0247866628381733	0.0219168164761927	0.0223652732605169	0.0229849381265922	0.0226874978571293	0.0245665343661873	0.0246578747932135	0.0222717219500923	0.0257479349632238	0.0256888861864848	0.0277629302715765	0.0237372742575246	0.0236021940098879	0.0247221489918553	0.0247221489918553	0.0280193872271326	0.0295332748706384	0.0308049631993442	0.0291755124911802	0.031919016928601	0.0287874830416583	0.0270727541318914	0.0272371521892329	0.0289662064650522	0.0290716393219996	0.0299330696521674	0.030531732118513	0.0339677497547128	0.0320597626505318	0.0315005523203041	0.0308193611063057	0.0286247480224654	0.028738824083689	0.0281575355133052	0.0260057009127206	0.0243201748553805	0.0229588293267456	0.0238508116024862	0.0251282881229563	0.0211824350395811	0.020429529875279	0.0200954330338272	0.0190425404626665	0.0202257648067764	0.0192667659634694	0.0197766014106448	0.0209154280889626	0.0220960670646116	0.0216807887731079	0.0217060645813548	0.0232148176454383	0.023643100574643	0.0249269861358607	0.0243855305192852	0.0264471655689105	0.0284225479476306	0.0260025717047147	0.0274697287531581	0.0285269945963615	0.02841575248196	0.0312439482921706	0.0354988841984049	0.0345460161626109	0.033046008264078	0.0310362734864801	0.0332745303536807	0.0323213822684236	0.0303010797740513	0.0303939645909719	0.0304720754418961	0.029587802332252	0.0312381506434777	0.0300800764404863	0.0269401750848469	0.029943226619537	0.0317455892933993	0.0328134226644281	0.0297120356382258	0.0291800917052609	0.0297767816278536	0.0307590695621763	0.0311026465192409	0.0343108023552664	0.0336206173170069	0.031048954597568	0.031105872221454	0.0286182773097384	0.0287401263605934	0.0263415182374409	0.0270013573757983	0.0285339065218561	0.0275822831432356	0.0301785979662731	0.0342076307194145	0.0326590864512549	0.0325049502863852	0.0347240776864258	0.0335808380074088	0.0349698930977606	0.0327835509045721	0.0360269002385215	0.0351069635674597	0.0330841357977623	0.0374932970890017	0.0398388977122659	0.0371924628632915	0.0354418222980934	0.0351240459404801	0.0330566828990642	0.0307194626340145	0.0327769451438261	0.0346785684786308	0.0332598410042048	0.0336449068804894	0.0377833364053042	0.0359245202363814	0.0342285529741656	0.0348050404562982	0.0329340648236057	0.0324329854264942	0.0329380289445044	0.032428193497329	0.0315975457393263	0.027040636031861	0.0277870207475221	0.0293366621476237	0.0251835005475031	0.0236541758800822	0.0244438361586059	0.0250019453830946	0.0235662157728987	0.0226378269484374	0.023679589702945	0.0232560134192539	0.0245113212193933	0.0229984776375434	0.0225904523181751	0.021429408499524	0.0238098448705282	0.0257314039755502	0.0251151435194973	0.0237505095937963	0.0262452599588167	0.0271972548167498	0.0262483768791628	0.0279380736856405	0.0274729891395697	0.0305033172092345	0.0311150666463514	0.0344569581241463	0.0316120829369744	0.0318081100537629	0.0330743846918085	0.0322033094307822	0.0318156119581622	0.0296383239693484	0.0304720754418961	0.0286718005356502	0.030775878166049	0.0294794115844231	0.027392534089562	0.0268168178106258	0.0316103622187194	0.0293097304559774	0.029291494282166	0.0291747536511139	0.0283492383461658	0.0293315262804884	0.0284048899910201	0.0305177327615996	0.0302482394871749	0.0293950546934528	0.0306065342524527	0.0266061511870522	0.0248522421188484	0.0259296483140905	0.0226884214085783	0.0241806270204646	0.0240805258377819	0.0247336867950829	0.0276590535910141	0.0295669494127102	0.0280548730499964	0.0298703511516477	0.0308590387874181
0.0188919141731654	0.0157807773189796	0.0155505680971785	0.0187617794456997	0.021825945353536	0.0216951917792349	0.0218337856382273	0.0240846283674322	0.0233591692637094	0.0236044332601813	0.0236137246412019	0.022715063168608	0.0219881467169773	0.0244104094700075	0.0254999731179656	0.0230704447862843	0.024018648276159	0.0232042314671403	0.0239477018177982	0.0231043802084124	0.024787914891063	0.0263180280196569	0.0248513073711835	0.024493999742286	0.0244546012947377	0.022434734243473	0.0218340693874098	0.0227449841930875	0.0229586108794699	0.02159757847786	0.0208801357486136	0.0200784310534545	0.0203149069814647	0.0204261872333393	0.0188291007178615	0.0191572874981419	0.019466260222334	0.0195450994813526	0.0202299471462123	0.0179121187670338	0.0163582765916194	0.0181828775209257	0.0160905087362469	0.0163119384067717	0.0135572976088288	0.0130928519557675	0.0142376342906805	0.0138165626934795	0.0148504311544929	0.0142090545692965	0.0135448964717011	0.015965834716285	0.0175162698967062	0.0197582062749749	0.021428590772571	0.0233338829326137	0.0238318564405904	0.0253668390031069	0.0244019905147663	0.0256953391124596	0.0253450351478391	0.0251224399704809	0.0267032546536239	0.0250103848654779	0.0221511429094248	0.0204443624547236	0.0192437585358928	0.018001789500193	0.0168761384606453	0.0153792834280142	0.0144968711607051	0.0132686156641808	0.0147901158583405	0.0159474026730402	0.0170387682492098	0.0183465255730693	0.0206166354269002	0.0222851001820987	0.0216481241482253	0.0219451449648057	0.0234503818391445	0.0225309593378077	0.0233117879801521	0.0232350800141466	0.0240508559401834	0.0255313234869309	0.0231915616812399	0.0205318522217482	0.0192644949486232	0.0179364989783249	0.0200129977093556	0.0227444019114701	0.0225877552109543	0.0242287231978976	0.0264795659271024	0.0259160594006181	0.0252145425111001	0.023928200037394	0.0249403761625096	0.0255610631804416	0.0234326310685345	0.0261423333214813	0.0267693568268507	0.0254479513432558	0.0245457593080846	0.0247796757197662	0.0240336539164317	0.0267761286827899	0.027249604256831	0.0290501990408811	0.0268007133424936	0.0274455023933605	0.0280080397195384	0.0254256353420958	0.025108865813745	0.0242369768824814	0.0244383924677935	0.0246558768538474	0.0219081562885619	0.0214300877890999	0.0219435923774763	0.0190851444109765	0.0209002369305806	0.0195633077385733	0.0205060230615697	0.0211473996467661	0.0217886586914783	0.0194557269766458	0.0181244799785896	0.0172153355380206	0.0172153355380206	0.0159482606458461	0.0134368501151969	0.0142227041539663	0.0156606413586829	0.0169647737485823	0.0173572656243992	0.0156117518046934	0.0152887977809891	0.0184511120838026	0.0188575658357056	0.0205776766169296	0.0228105984407036	0.0245290164438633	0.0275296753135839	0.0266141714626622	0.0255540188211007	0.0259864117330355	0.0247036585626426	0.0256730300229317	0.0259560947690462	0.022355622772715	0.0219142743450725	0.0201360138720943	0.0186839206906647	0.0170558352048205	0.0156809887710855	0.0146591244466284	0.014460582301828	0.0124454969141285	0.0150918212014118	0.0164225393109368	0.0175127741005216	0.0194660023160916	0.0213699924047572	0.0224289527905696	0.0216481241482253	0.0221959201031433	0.0220688883407369	0.0233117879801521	0.0217753187161841	0.0241984877648717	0.023196034975159	0.0238114993460534	0.0213656036942959	0.0201786903779047	0.0178483821660632	0.0161577362703229	0.021501502272055	0.0225159122767203	0.0224811396799038	0.0237666522008268	0.0260174949300316	0.024814562462669	0.0247863866866284	0.022667698951661	0.023463274299972	0.0227363578483414	0.0251586206013716	0.025265896315007	0.0232290065664147	0.0231641529956161	0.0231834876591452	0.0221172835431696	0.0213581447425803	0.0226776618624416	0.022973555972641	0.0237126141283656	0.0227740179290842
0.0144529639233863	0.013721698805686	0.0161467772844489	0.0189287970826225	0.0186682866433037	0.0188496142283681	0.0182943018256644	0.0176213057508205	0.0186252399505244	0.0187513665495886	0.0180886107448856	0.0196755987000016	0.020892845725445	0.020892845725445	0.0186126626127208	0.0175993178813109	0.0171100836135037	0.0153140053658033	0.0157723321441278	0.0145774010244545	0.012518285681678	0.0119281947966462	0.0145748110646918	0.0148637055772085	0.0103369634594304	0.0112569001304922	0.0118107123503236	0.0123941541706002	0.0144289707059307	0.0138664333797528	0.0133220424189356	0.0124794897464146	0.0126110308844357	0.0130235968100898	0.0110887215993133	0.0103810456789582	0.0118781815795237	0.0115789319263939	0.0131937360708732	0.0131476406724987	0.0127136086962841	0.0114970461810768	0.0121598019857798	0.0116329720236986	0.0113837944676951	0.0113806658991668	0.0121614945415111	0.0130734875120513	0.0124562578806216	0.0162093135769988	0.0158821961836196	0.0132571856077291	0.0129835416635886	0.0122522765458884	0.0143843524128058	0.0143784147719855	0.0145306067036098	0.0141463573672049	0.0150833468504917	0.016606876605295	0.0159599019859341	0.013150433141013	0.0123947925193894	0.0137065560032577	0.0145554810537845	0.0154457423483604	0.0138580574422603	0.0140388559856929	0.0149660148898353	0.0154262768833964	0.0156273479107593	0.0164464720742601	0.0150649785758525	0.0151706496309398	0.0159371086840115	0.0166056142232393	0.0153897939088409	0.0154501338410289	0.0154501338410289	0.0147758020932514	0.0140119281486467	0.0148818261663965	0.0175903149083915	0.0179302310916277	0.018879894382611	0.0198268109221999	0.0190359763652049	0.0189226571877769	0.0189059151114222	0.0203861988682281	0.0237695293986543	0.0243252741390655	0.0245915936618279	0.0253660505441321	0.0238776712302705	0.0229929257454505	0.024352166329778	0.0225325925969264	0.0225325925969264	0.0225819336250563	0.0237093076883075	0.0219909850745796	0.0181204586611912	0.0197084710821915	0.0192613056011552	0.0180460783851355	0.0184868441647239	0.0171055516013785	0.0154118316436487	0.0167461144039218	0.0180791374789586	0.017049474514178	0.015444627087287	0.015444627087287	0.0172523958125868	0.0154837207458231	0.0181869887491903	0.0170800604621952	0.0150393392404055	0.014637552347473	0.0132712214298736	0.0137071233545263	0.0124444647515621	0.0121163362788132	0.0124965344070573	0.0131172214249893	0.0134238665679657	0.0145124086341983	0.0132546717887359	0.0134761014592607	0.0141388572639636	0.0140042263310754	0.0139072407066963	0.0133597211773506	0.013029403640267	0.0145388722532815	0.0146387951678526	0.0172948684074542	0.0142702403874387	0.0137606213534567	0.0139341428903525	0.0122522765458884	0.0137215966081029	0.0139862157427925	0.0139862157427925	0.0155624701497648	0.0152635106367728	0.0147178605446745	0.0147423906184037	0.0123947925193894	0.0131024684397445	0.0145134122670136	0.0154457423483604	0.0154457423483604	0.013313666481443	0.0140388559856929	0.0162071055257407	0.01476580472246	0.0154944772163271	0.0156656434319158	0.015313863285232	0.0159371086840115	0.0160909759519557	0.0153212845958437	0.014499532614265	0.0154501338410289	0.0154501338410289	0.0147758020932514	0.0142404495812001	0.0150767867715368	0.0186110118031908	0.0179302310916277	0.0192227470732985	0.0183047112475047	0.0181744331769057	0.0189523325642627	0.0189059151114222	0.020697913161968	0.0234799329601416	0.0238821783255258	0.0245903358726714	0.0235081935078865	0.0197764745244615	0.0209795228524057	0.0199987211644748	0.0189171839519335	0.0186047002420716	0.0196789289786052	0.0189940813137454	0.0171616961881752	0.0161483514567653	0.0161211881860289	0.0137982799762472	0.0143785645240977	0.0141342346311882	0.0133495017118686	0.0129031667451763	0.0157151292210862	0.016004023733603
0.00735624482310577	0.00784963396553357	0.00791482400737991	0.00791482400737991	0.00869565264972426	0.00886113232828367	0.0107421059653355	0.0100045213629004	0.0123060111619329	0.0118692495274263	0.01084776412296	0.00967494839678766	0.0104305890184112	0.0112634241260396	0.0102414541071825	0.0109491300275375	0.0115698170454696	0.00998213213936938	0.0107110522876859	0.011669938317611	0.00997562645883831	0.0112070037727462	0.011532934869315	0.011532934869315	0.0107772942476914	0.0107131336007637	0.00923800554301959	0.00853032962266454	0.00948733055087616	0.00967349979669998	0.00929696040848833	0.00884483201420004	0.00928559779378849	0.00728673097342361	0.00724100913291886	0.00934001572306463	0.0102054972992638	0.0099287994419966	0.0106600645596968	0.0125648618056594	0.0127383833425552	0.011421691631624	0.0112423860434984	0.0117797205561153	0.0134151694477388	0.0131625405609863	0.0129176631947342	0.0122843329117925	0.0124522569797562	0.0123382828356947	0.0116070177179945	0.0111644285163944	0.010749932906155	0.010749932906155	0.012139911474327	0.0142785426049471	0.0133925027506387	0.0113884737178432	0.0113884737178432	0.0122565543948562	0.0114985540080072	0.010897889151944	0.011338762419939	0.0104772192316398	0.00996233588053354	0.00996233588053354	0.00848983376289681	0.00732165962358349	0.00771471626549687	0.00833540328342889	0.0105043092950593	0.00989782738560231	0.0100007585387141	0.0100007585387141	0.0109019514451416	0.0109019514451416	0.010609978532492	0.0111725158586698	0.0136121876089914	0.0124769995397617	0.0125241296332524	0.0116996531984378	0.00977856947735955	0.0104304375016823	0.00922763139902251	0.0103057696187256	0.00947397531113735	0.0106467910373097	0.0120017233680367	0.0137882966756915	0.0125603025523109	0.0113486249253699	0.0108032293176581	0.0108788204637137	0.0118492160055104	0.0123590687121157	0.0143236992973629	0.0142664851104624	0.0132449997059961	0.0128278246014474	0.0134284894575106	0.0127615616442845	0.0127615616442845	0.0134692375646396	0.0133090959402273	0.0138748813793681	0.013676503823312	0.01452112581681	0.013627374695313	0.0141510760888659	0.0147388363230249	0.0139831957014013	0.0146038827193333	0.0118432421406663	0.0109661027119365	0.0102584267915815	0.0114015969656169	0.0126347109508803	0.0125091943792911	0.0102094871374844	0.0104667562266751	0.00992236526585787	0.00980034736823837	0.0116907181612873	0.0115027719314549	0.0132407820145229	0.0138821585997193	0.0157662662784175	0.0140024090864501	0.0138231034983244	0.0110623726821407	0.01374801104361	0.0146217942032667	0.0143696873265065	0.0147454969781865	0.014156899270785	0.0143248233387486	0.0139123248650866	0.0126081924751872	0.0115856279847882	0.0123924842485441	0.0132380718558989	0.0147955869128766	0.0166019297294823	0.0149270823903105	0.0133292636234616	0.0131423894665787	0.0134393439136256	0.0123612056939226	0.0116984498892196	0.0135333440796179	0.0129637738039682	0.0121569175402124	0.0108492589357868	0.0107773002394962	0.00754288904294442	0.00844598138319709	0.00991196022738947	0.0106911834519423	0.010284858175378	0.0107320236564143	0.0112418591035897	0.0116332165628418	0.010609978532492	0.010609978532492	0.0124005099820504	0.0124769995397617	0.0124769995397617	0.0116575844116668	0.0108543613721774	0.0106123209499072	0.00967479688005874	0.0103057696187256	0.0109689618430875	0.0106467910373097	0.0106467910373097	0.0124951125104645	0.0115114373246619	0.0102997596977209	0.00961491203286122	0.00982995523606476	0.0104067964832172	0.0103105884659785	0.0125191934480904	0.0120824318135838	0.0114404938567236	0.0102676781305513	0.0110233187521749	0.010460509799943	0.012005921022661	0.012713596943016	0.012713596943016	0.0117465990548479	0.0132067843208646	0.0140112903696346	0.0118937394268598	0.0136066851280486	0.0140974597378285	0.0147388363230249
0.00618693999011225	0.00618693999011225	0.00638115109427244	0.00615674635443021	0.00627211819957183	0.00713366138787111	0.00725685288029455	0.00739630493744248	0.0064097519295115	0.00545737933232437	0.00704587600660035	0.00704587600660035	0.00809993576700968	0.00857740913064948	0.00750329175735348	0.00759028065977652	0.00759028065977652	0.00657147247546549	0.00649763758148348	0.00571680893913913	0.00737484285811954	0.00686500741094415	0.00631987030412273	0.00694055732205475	0.00543933208060918	0.00645385163085602	0.00805833686092769	0.00789505190138992	0.00996021017112989	0.00955493784096379	0.00902810787888255	0.010657781129675	0.00946181820776539	0.0103069099655396	0.0100235781933213	0.00940289117538923	0.00940289117538923	0.00927229091375225	0.00810814295027702	0.00840404907286901	0.00815973013529103	0.00796455951568224	0.0108685565116632	0.0113052392368493	0.010976611565653	0.0120192767372183	0.0116362559765148	0.0118436302777347	0.0131698545277909	0.0141342062619756	0.0140472173595525	0.0137232339409296	0.0131606966147517	0.0137184491889486	0.011979530171717	0.0120509832949254	0.0117287540984634	0.0131244770495943	0.0138494449608145	0.0138494449608145	0.0130857580369362	0.0131795845546655	0.0125588975367334	0.0124584312076264	0.0126961133914499	0.0133604775136447	0.0121953995348954	0.0124478624370593	0.0120868727442113	0.0107171774144919	0.0110760466317745	0.011831687253398	0.0118135408880375	0.0102767063789564	0.0108773712350196	0.0119559239269426	0.0112710762620829	0.00986573444845164	0.010148288880048	0.0110555053324147	0.0100487603670469	0.0105262337306867	0.00909869044899883	0.00834334964926538	0.00902819731412511	0.00913915813391452	0.00920124908255424	0.00766062539356044	0.00810779087459668	0.00892268899668888	0.00926082158302451	0.00825111877581042	0.00808239098428805	0.00906712566501077	0.00906712566501077	0.00890487237908745	0.00769319475214648	0.00714609448512546	0.00832931882923533	0.0102424659787895	0.0102727738613931	0.00919865648809708	0.00795728245223305	0.00932771417729107	0.00917044918127932	0.00823507109899803	0.00823507109899803	0.00788698324475326	0.00911227637563409	0.00924052816574715	0.00936283850442903	0.0083884432250647	0.0073461275957887	0.00883812050967534	0.010442605739747	0.0108418581063871	0.011838988241258	0.0113121582791768	0.0120929869215211	0.0125090907418696	0.0117458686080596	0.0118301552299757	0.0116869415756834	0.0110020939108237	0.0110759288048057	0.00907410044374369	0.0089841473977829	0.00952912372522471	0.00690142812930688	0.00849138947776348	0.0100877278693188	0.0121014383674268	0.0121837583311733	0.0128434027420351	0.0123659293783953	0.0143770012933111	0.0153413530274958	0.0159620400454278	0.0144475078613169	0.0143678433802719	0.015388062484781	0.0150194530103196	0.013767965507621	0.0120456395694077	0.0131930817303425	0.0130379517627681	0.0147693816318763	0.0135139503385839	0.0138811664042333	0.0142344748294188	0.0146965458264896	0.0136868430192755	0.0146556039695256	0.014415367788398	0.0141234397297446	0.0146527113314726	0.0137624500368967	0.0112866487902916	0.011831687253398	0.0125873278750216	0.010443845558318	0.0108773712350196	0.0104153002379488	0.0119559239269426	0.00996694387218351	0.00986573444845164	0.00987707473367819	0.0100487603670469	0.0100487603670469	0.00990554671275466	0.00827045496573646	0.00902819731412511	0.00994601439767035	0.00853849327785128	0.00920124908255424	0.00810779087459668	0.00810779087459668	0.00848994820858929	0.00826554346874707	0.00708711287001061	0.00851119338448775	0.00863438487691118	0.00877383693405911	0.0072604539640469	0.00630808136685977	0.00749130571096964	0.00682854990626668	0.00895728737948759	0.00895728737948759	0.00769522377635915	0.00778221267878219	0.00844496848348516	0.00742616029917413	0.00735232540519212	0.00657149676284777	0.00822953068182818	0.00771969523465279	0.00757983045799748	0.00888536514078922
0.00693552195600976	0.00714093558572595	0.00714093558572595	0.00755971699356426	0.00706632785113646	0.00653949788905522	0.00694049725299408	0.00738925251035724	0.0080969284307123	0.00901686510177408	0.00760744217387373	0.00797474615542805	0.00698584519627604	0.00646288788325444	0.00704417645363822	0.00718010229625995	0.00676132088842164	0.00751696151004521	0.00711596214610635	0.00679638370236261	0.00691276152001197	0.00599282484895018	0.0051590733764025	0.00695137940728269	0.00658407542572837	0.00685814802937046	0.0066208486196515	0.0066208486196515	0.00595809281494853	0.00582313921125698	0.0052418506408732	0.00453417472051815	0.00473224797985325	0.00390819424184884	0.0045709500465518	0.00353630175339921	0.00417731173064447	0.00385808940621635	0.00588613627467527	0.00588613627467527	0.00664177689629884	0.00780215298624932	0.00817302241017082	0.00941592204958595	0.00890608660241055	0.00928563405001669	0.00862287824531372	0.00899574297269353	0.00784489754827288	0.00931674425833882	0.00822820219210617	0.00694470822921508	0.00729599589458665	0.0070085563946701	0.00598144166587527	0.00473854202646014	0.00473854202646014	0.00473854202646014	0.00511463520047757	0.00497142154618536	0.00497142154618536	0.0034599750069475	0.00408066202487952	0.00408066202487952	0.00345120710152419	0.00336309028926249	0.00484443407406821	0.00537126403614944	0.00684087610460824	0.00684087610460824	0.00684087610460824	0.00613459208142611	0.00666142204350734	0.00637886761191096	0.00575818059397894	0.00575818059397894	0.00723103096399783	0.00682575863383172	0.00552725565044243	0.00500042568836119	0.00483105902608602	0.00535692610312356	0.00593821467350734	0.00630164600600203	0.00639550306185281	0.00708588815212149	0.00863867746230085	0.00910074845937162	0.00767725468779418	0.0085675159823701	0.00804068602028886	0.00898629739020841	0.00849290824778061	0.00894836622002201	0.0075611842709261	0.00928015277482217	0.00928015277482217	0.00888901733768326	0.00816997950005159	0.00807521248453513	0.00754838252245389	0.00702542520943229	0.00760671377981608	0.0073238582145995	0.0073238582145995	0.00709721090190042	0.00825978804266799	0.00723253367856919	0.00749405009039575	0.00657411341933397	0.00574036194678628	0.00716536399611215	0.00780674058130857	0.00743943659975424	0.00720213719003528	0.00653938138533231	0.00653938138533231	0.00640442778164077	0.00582313921125698	0.00422241253267786	0.00463945935954906	0.00530221516425202	0.00607686741688547	0.0046285505466701	0.00479403022522951	0.00556334996703405	0.00714423135445673	0.00714423135445673	0.0078998719760803	0.008886726529135	0.0104200184491043	0.0112008470914486	0.0106910116442733	0.0096765381694762	0.010049402896856	0.00917858377410995	0.00837172751035412	0.00939640873938383	0.00747153819129632	0.00857846647829145	0.00831621499909569	0.00705266258877379	0.00604620063088573	0.00473854202646014	0.00473854202646014	0.00435899457885401	0.00497142154618536	0.00497142154618536	0.00497142154618536	0.00408066202487952	0.00408066202487952	0.00297373373788438	0.00295781795909639	0.00360038969898146	0.00537126403614944	0.00603401984085241	0.00684087610460824	0.00684087610460824	0.00560776211934487	0.00666142204350734	0.00666142204350734	0.00575818059397894	0.00575818059397894	0.0070236566627779	0.00723103096399783	0.00624447006344794	0.00500042568836119	0.00483105902608602	0.00455103272441143	0.00593821467350734	0.00682847596808326	0.00577481604392079	0.00639550306185281	0.00863867746230085	0.00863867746230085	0.00836210235265391	0.0085675159823701	0.0085675159823701	0.0085675159823701	0.00849290824778061	0.00796607828569937	0.0075611842709261	0.00800993952828926	0.00928015277482217	0.00957940242795194	0.00816997950005159	0.00816997950005159	0.00754838252245389	0.00702542520943229	0.00760671377981608	0.00707988381773484	0.0073238582145995	0.00807949883622306	0.0076784994722842	0.00762844741108396	0.00666999635239134	0.00657411341933397	0.00574036194678628	0.00702283253049108
0.00343352521141954	0.0040962810161225	0.00494512562457061	0.0045896701585503	0.00398900530248706	0.00521167045806726	0.00533279140606153	0.00533279140606153	0.00635100267678481	0.00681307367385559	0.00651473170051336	0.00616886136675472	0.00722785726708283	0.00656510146237986	0.00620964599635955	0.00620964599635955	0.00822435393669476	0.00700168878111456	0.00844239422694964	0.00844239422694964	0.00844239422694964	0.00794702202462685	0.00875387828838268	0.00863663064673286	0.00785580200438851	0.00830213697108075	0.0088646742972586	0.00837128515483081	0.00751272216162636	0.00884772373527089	0.0080151927726573	0.00842046510282341	0.00892615417624919	0.00860399991548089	0.00779714365172506	0.00809267928314778	0.00809267928314778	0.00689070369483198	0.00632816636865413	0.00888531255014249	0.00893631436853197	0.00893631436853197	0.00674988543682292	0.0069259016770406	0.00575745679891186	0.00604942971156145	0.00604942971156145	0.00536881954774221	0.00583089054481299	0.00643155540087623	0.00695838536295747	0.0044012391814691	0.00445751307671507	0.00445751307671507	0.00372624795901484	0.00524150142589973	0.00466021285551594	0.0054637365356689	0.00619500165336912	0.00695409654858138	0.00629134074387842	0.00566134567884398	0.00632410148354695	0.00579727152146571	0.00570644211257786	0.00625083307339514	0.00625083307339514	0.00473557960651026	0.00473557960651026	0.00418447397452499	0.00458373132193217	0.00446601301191632	0.0049280840089871	0.00511603023881954	0.00445327443411657	0.00445327443411657	0.00469109348215449	0.00414670252133721	0.00450215798735753	0.00450215798735753	0.00510282284342077	0.00455843188260349	0.0036185506573421	0.00297717407214568	0.0025151030750749	0.00189441605714288	0.00370370634299305	0.00418117970663285	0.0040962810161225	0.00445173648214281	0.0045896701585503	0.0045896701585503	0.00457029387287084	0.00521167045806726	0.00533279140606153	0.0059955472107645	0.00635100267678481	0.00681307367385559	0.00616886136675472	0.00647221664545927	0.00656510146237986	0.00673647595844079	0.00624308681601299	0.00673647595844079	0.00816989532839221	0.00847413011311534	0.00896922418903088	0.00830646838432791	0.00861376872301057	0.00847385198670809	0.00811563027171462	0.00838263196646975	0.00891595583558502	0.0100991801796949	0.00957235021761366	0.00966024964556964	0.00813893084766224	0.00919107685609019	0.00930415726339614	0.0104590930638527	0.010215118666988	0.00989296440621973	0.00986693678480825	0.00938164377388662	0.00919255423269584	0.00730165396823092	0.00915050596734539	0.0116119295918766	0.010537251879065	0.00927075961841773	0.00835082294735595	0.00777717571728319	0.00765036722209448	0.00765036722209448	0.00686953857975013	0.00696975705827524	0.00743182805534602	0.00764029388221626	0.00739641006488607	0.00578944305047853	0.00505817793277831	0.00432691281507809	0.00520419651202261	0.00559377044770643	0.00622917247444944	0.00666191326254902	0.00777272582785538	0.00748951747075855	0.00702744647368777	0.0077794590767859	0.00791538491940762	0.00722389065445653	0.00776828161527381	0.00776828161527381	0.00722389065445653	0.00592013541226168	0.00525737960755872	0.00572509766351879	0.00576549713058424	0.00584802068004889	0.00584802068004889	0.00603596690988132	0.00445327443411657	0.00469109348215449	0.00414670252133721	0.00414670252133721	0.00450215798735753	0.00510282284342077	0.00510282284342077	0.00412838610451749	0.00297717407214568	0.0025151030750749	0.0025151030750749	0.00281344504841713	0.00370370634299305	0.00343352521141954	0.0040962810161225	0.00445173648214281	0.0045896701585503	0.00398900530248706	0.00521167045806726	0.00533279140606153	0.00533279140606153	0.0059955472107645	0.00681307367385559	0.00589404468258134	0.00616886136675472	0.00647221664545927	0.00656510146237986	0.00673647595844079	0.00673647595844079	0.00808842809407303	0.0075285187431958	0.00896922418903088	0.00896922418903088	0.00896922418903088	0.00847385198670809	0.00928070825046392	0.0091634606088141
0.00462096028783743	0.00503974169567574	0.00503974169567574	0.0039328134086806	0.0039328134086806	0.00350007262058102	0.00289940776451778	0.00294130091538791	0.00183785333312071	0.00183785333312071	0.00228501881415695	0.00304411062780817	0.00359492567786241	0.00359492567786241	0.0031761442700241	0.0031761442700241	0.0031761442700241	0.00425082198283568	0.00528901703605563	0.00484185155501939	0.00484185155501939	0.00588415480732849	0.00588415480732849	0.00463013306253642	0.00315517601834062	0.00413230776725749	0.00413230776725749	0.00464214321443288	0.00464214321443288	0.00518653417525016	0.0056542189618581	0.00618720793345782	0.00668059707588561	0.00563829382357652	0.00770003941950479	0.00770003941950479	0.0081775127831446	0.00774477199504501	0.00753327377035498	0.00753327377035498	0.00702343832317958	0.00598565821993451	0.00467443338374702	0.00336550083812312	0.00353486750039829	0.00353486750039829	0.00147312190447001	0.00147312190447001	0.00172074030615045	0.00172074030615045	0.00250192373038303	0.00250192373038303	0.00312261074831504	0.00408707189608926	0.00443106105675407	0.00443106105675407	0.00376830525205111	0.00376830525205111	0.00418708665988942	0.00418708665988942	0.00392164040757537	0.0043011878551815	0.00318711169482169	0.00384986749952465	0.00369125147866341	0.00302849567396045	0.00238280117022438	0.00238280117022438	0.00238280117022438	0.00238280117022438	0.00274484840473042	0.00274484840473042	0.00398856962986132	0.00314937666924899	0.00314937666924899	0.00326744950689037	0.00280537850981959	0.00280537850981959	0.00391230679681473	0.00434504758491431	0.00434504758491431	0.0047777883730139	0.00500289691689889	0.00610634449916609	0.00486262327403519	0.00486262327403519	0.00486262327403519	0.00459163007886623	0.0058874525484847	0.00630623395632301	0.00519930566932788	0.00519930566932788	0.00476656488122829	0.00433382409312871	0.00332788690689936	0.0026716048056684	0.0026716048056684	0.00306380383486141	0.00351096931589764	0.00427006112954886	0.00522614850976921	0.00397361562938321	0.00397361562938321	0.00397361562938321	0.00397361562938321	0.00504829334219479	0.00608648839541474	0.0056393229143785	0.00630207871908146	0.0066816261666876	0.00584226165645836	0.00457333439563175	0.00399318913660631	0.00445446202802579	0.00445446202802579	0.00496429747520118	0.0061889517353292	0.0056586649833349	0.00642508390873024	0.00773401645435414	0.00707126064965117	0.00713887868308128	0.00875345879797331	0.00923093216161312	0.00879819137351353	0.0085866931488235	0.0082645388880552	0.00775470344087981	0.00769405508655159	0.00641839900803409	0.0046137850294188	0.00330485248379491	0.00396760828849787	0.00352044280746163	0.0019058626925696	0.00215348109425004	0.00215348109425004	0.00244127537605481	0.00293466451848261	0.00403282490005443	0.0046955807047574	0.00490853442039388	0.00490853442039388	0.00490853442039388	0.00424577861569091	0.00466456002352922	0.00466456002352922	0.00393946825820897	0.00477866121882131	0.00415797420088929	0.00432734086316446	0.00370665384523244	0.00302849567396045	0.00238280117022438	0.00238280117022438	0.00238280117022438	0.00238280117022438	0.00196401976238607	0.00274484840473042	0.00313704743392343	0.00314937666924899	0.00314937666924899	0.00326744950689037	0.00326744950689037	0.00280537850981959	0.00280537850981959	0.00391230679681473	0.00434504758491431	0.0047777883730139	0.00537845322907714	0.00500289691689889	0.00571414546997309	0.00486262327403519	0.00486262327403519	0.00459163007886623	0.00505370107593701	0.0058874525484847	0.00630623395632301	0.00519930566932788	0.00476656488122829	0.00433382409312871	0.00373315923706547	0.0037750523879356	0.0026716048056684	0.0026716048056684	0.00306380383486141	0.00380799013247808	0.0048208761796031	0.00439239703722152	0.00397361562938321	0.00397361562938321	0.00397361562938321	0.00446700477181101	0.00580393396381835	0.0056393229143785	0.0056393229143785	0.00601887036198463	0.00562667133279163	0.00437264958799956
0.00252864472281151	0.00216134074125719	0.00216134074125719	0.00244389517285357	0.00244389517285357	0.00206434772524744	0.00163160693714786	0.000990230351951437	0.000282554431596382	0.000282554431596382	0.000282554431596382	0.000282554431596382	0.000282554431596382	0.000282554431596382	0.00070133583943469	0.00070133583943469	0.000418781407838307	0.000418781407838307	0.000418781407838307	0.000418781407838307	0.00139068785208448	0.00139068785208448	0.00139068785208448	0.00255889439936213	0.00255889439936213	0.00365705478093395	0.00323827337309565	0.0038499124559744	0.0038499124559744	0.0038499124559744	0.0038499124559744	0.0038499124559744	0.00287800601172823	0.00347867086779148	0.00347867086779148	0.00231046432051382	0.00231046432051382	0.00231046432051382	0.001212303938942	0.001212303938942	0.000600664856063243	0.00104783033709948	0.00104783033709948	0.00142737778470561	0.00142737778470561	0.00209013358940858	0.00148946873334533	0.00148946873334533	0.00148946873334533	0.00148946873334533	0.00148946873334533	0.00148946873334533	0.00148946873334533	0.00177159494365037	0.00265434063745628	0.00265434063745628	0.00285608176023393	0.00279399081159421	0.00332082077367545	0.00332082077367545	0.00332082077367545	0.00367627623969576	0.00404358022125008	0.00444885255141618	0.00444885255141618	0.00444885255141618	0.0033142885299088	0.002836815166269	0.00225552659588522	0.00250334888643743	0.00195714263867673	0.00325738804486036	0.00325738804486036	0.00290193257884005	0.00309716592346358	0.00269189359329748	0.00269189359329748	0.0030591975748518	0.0030591975748518	0.0030591975748518	0.00458380083933845	0.00476871933688582	0.00482880735169846	0.00402195108794263	0.00423623786586989	0.00423623786586989	0.00367370053969203	0.00367370053969203	0.00367370053969203	0.00330639655813771	0.00330639655813771	0.00358895098973409	0.00320940354212796	0.00163160693714786	0.000990230351951437	0.000990230351951437	0.000282554431596382	0.000282554431596382	0.000282554431596382	0.000282554431596382	0.000282554431596382	0.000282554431596382	0.00070133583943469	0.000418781407838307	0.000418781407838307	0.000418781407838307	0.0013289955595777	0.00183883100675309	0.00281073745099926	0.00281073745099926	0.00281073745099926	0.00397894399827691	0.00397894399827691	0.00507710437984873	0.00465832297201042	0.00526996205488918	0.00526996205488918	0.00526996205488918	0.00526996205488918	0.0038499124559744	0.00338784145890362	0.00347867086779148	0.00347867086779148	0.00231046432051382	0.00231046432051382	0.001212303938942	0.001212303938942	0.000600664856063243	0.00104783033709948	0.00104783033709948	0.00104783033709948	0.00142737778470561	0.00142737778470561	0.00148946873334533	0.00148946873334533	0.00148946873334533	0.00148946873334533	0.00148946873334533	0.00148946873334533	0.00148946873334533	0.0010423032523091	0.00177159494365037	0.00265434063745628	0.00227479318985015	0.00285608176023393	0.00279399081159421	0.00384765073575668	0.00384765073575668	0.00384765073575668	0.004203106201777	0.0055569710838812	0.0055569710838812	0.0055569710838812	0.00482767939253993	0.00394493369873402	0.00394493369873402	0.00361146741890245	0.00301080256283921	0.00306526117114175	0.00383867661524414	0.00383867661524414	0.00348322114922383	0.00327318216368126	0.00269189359329748	0.0030591975748518	0.0030591975748518	0.0030591975748518	0.0030591975748518	0.00433597854878624	0.00476871933688582	0.00482880735169846	0.00423623786586989	0.00423623786586989	0.00423623786586989	0.00367370053969203	0.00367370053969203	0.00330639655813771	0.00330639655813771	0.00330639655813771	0.00358895098973409	0.00206434772524744	0.00163160693714786	0.000990230351951437	0.000282554431596382	0.000282554431596382	0.000282554431596382	0.000282554431596382	0.000282554431596382	0.000282554431596382	0.00070133583943469	0.00070133583943469	0.000418781407838307	0.000418781407838307	0.000418781407838307	0.0013289955595777	0.00230090200382386	0.00281073745099926	0.00281073745099926	0.00397894399827691
